-3.3824 9.2933 20.175
-3.4015 9.294 20.178
-3.4263 9.2971 20.164
-3.4454 9.2977 20.166
-3.4645 9.2984 20.169
-3.4836 9.299 20.171
-3.5028 9.2996 20.174
-3.5219 9.3003 20.176
-3.541 9.3009 20.178
-3.5601 9.3016 20.18
-3.5936 9.3072 20.186
-3.6128 9.3078 20.188
-3.6319 9.3085 20.19
-3.651 9.3091 20.192
-3.6804 9.3079 20.179
-3.6995 9.3085 20.181
-3.7084 9.311 20.199
-3.7378 9.3098 20.186
-3.7569 9.3104 20.188
-3.9345 9.3187 20.192
-3.9727 9.32 20.197
-3.9918 9.3206 20.199
-4.011 9.3212 20.201
-4.0445 9.3269 20.206
-4.0737 9.3257 20.192
-4.0929 9.3263 20.195
-4.112 9.327 20.197
-4.1311 9.3276 20.199
-4.1502 9.3282 20.201
-4.1694 9.3289 20.203
-4.1885 9.3295 20.206
-4.2076 9.3302 20.208
-4.2268 9.3308 20.21
-4.2459 9.3314 20.212
-4.265 9.3321 20.214
-4.2894 9.3352 20.201
-4.3085 9.3359 20.203
-4.3468 9.3371 20.207
-4.3659 9.3378 20.21
-4.3851 9.3384 20.212
-4.4233 9.3397 20.216
-4.4425 9.3404 20.218
-4.4667 9.3435 20.205
-4.505 9.3448 20.209
-4.5241 9.3454 20.211
-4.5433 9.3461 20.213
-4.6007 9.348 20.22
-4.6198 9.3486 20.222
-4.9934 9.3659 20.23
-5.0317 9.3672 20.234
-5.0556 9.3703 20.22
-5.07 9.3684 20.238
-5.1131 9.3722 20.226
-5.1322 9.3729 20.228
-5.1513 9.3735 20.23
-5.1705 9.3742 20.232
-5.1896 9.3748 20.234
-5.2088 9.3755 20.236
-5.247 9.3767 20.24
-5.2615 9.3819 20.242
-5.2807 9.3825 20.244
-5.319 9.3838 20.248
-5.3381 9.3845 20.25
-5.3573 9.3851 20.252
-5.3764 9.3857 20.254
-5.3956 9.3864 20.256
-5.6346 9.3992 20.248
-5.6584 9.3953 20.249
-5.6775 9.396 20.251
-5.6967 9.3966 20.253
-5.7158 9.3972 20.254
-5.7303 9.4024 20.257
-5.7541 9.3985 20.258
-5.7686 9.4037 20.261
-5.7878 9.4043 20.262
-5.8069 9.405 20.264
-5.8644 9.4069 20.27
-5.8836 9.4076 20.271
-5.9263 9.4114 20.26
-5.9544 9.4101 20.245
-5.9646 9.4127 20.263
-6.022 9.4146 20.268
-6.0884 9.4145 20.258
-6.1075 9.4152 20.259
-6.6388 9.4449 20.292
-6.658 9.4455 20.293
-6.6857 9.4441 20.279
-6.7623 9.4467 20.285
-6.8046 9.4506 20.273
-6.8237 9.4512 20.275
-6.862 9.4525 20.278
-6.8812 9.4531 20.279
-6.9003 9.4538 20.281
-6.9386 9.455 20.284
-6.9578 9.4557 20.285
-6.9769 9.4563 20.287
-6.9961 9.457 20.288
-7.0152 9.4576 20.29
-7.0298 9.4628 20.292
-7.0535 9.4589 20.292
-7.0681 9.4641 20.295
-7.0873 9.4648 20.296
-7.111 9.4608 20.297
-7.1256 9.4661 20.299
-7.1447 9.4667 20.301
-7.4357 9.4789 20.306
-7.4549 9.4795 20.308
-7.474 9.4802 20.309
-7.4932 9.4808 20.31
-7.5123 9.4814 20.311
-7.527 9.4867 20.314
-7.5461 9.4873 20.315
-7.589 9.484 20.317
-7.6036 9.4893 20.319
-7.6228 9.4899 20.32
-7.6611 9.4912 20.323
-7.6802 9.4918 20.324
-7.7569 9.4944 20.329
-7.7795 9.4976 20.315
-7.8944 9.5014 20.323
-7.9327 9.5027 20.325
-8.0554 9.5044 20.316
-8.3769 9.522 20.383
-8.3929 9.5199 20.399
-8.4166 9.5159 20.399
8.8692 8.8159 20.317
8.8346 8.8189 20.3
8.7755 8.8199 20.309
8.7187 8.8243 20.312
8.4538 8.829 20.294
8.4536 8.8336 20.306
8.3974 8.8335 20.297
8.3778 8.8338 20.3
8.3241 8.8372 20.287
8.2876 8.8368 20.275
8.268 8.8371 20.278
8.2484 8.8374 20.281
8.212 8.837 20.269
8.2093 8.8381 20.286
8.1897 8.8384 20.289
8.1701 8.8388 20.292
8.1362 8.8419 20.275
8.1166 8.8422 20.278
8.0971 8.8425 20.281
8.0437 8.8459 20.267
7.9292 8.8469 20.267
7.8902 8.8476 20.273
7.8566 8.8506 20.256
7.8371 8.851 20.259
7.8149 8.8478 20.267
7.7785 8.8521 20.268
7.759 8.8524 20.27
7.7228 8.852 20.259
7.6894 8.855 20.242
7.6699 8.8554 20.245
7.6504 8.8558 20.248
7.5948 8.8556 20.239
7.5754 8.856 20.242
7.5587 8.8599 20.24
7.2591 8.8658 20.229
7.2231 8.8701 20.231
7.2037 8.8705 20.233
7.1678 8.87 20.222
7.1648 8.8713 20.239
7.129 8.8707 20.227
7.1096 8.8712 20.23
7.041 8.8737 20.202
7.038 8.875 20.22
7.0022 8.8745 20.208
6.9828 8.8749 20.211
6.9634 8.8753 20.214
6.9471 8.8793 20.212
6.892 8.8791 20.203
6.8889 8.8805 20.221
6.8532 8.8799 20.209
6.8207 8.883 20.193
6.6883 8.8845 20.196
6.6689 8.8849 20.199
6.6496 8.8853 20.202
6.6334 8.8893 20.201
6.5785 8.8892 20.192
6.5592 8.8896 20.195
6.5398 8.8901 20.197
6.5205 8.8905 20.2
6.5011 8.8909 20.203
6.4689 8.894 20.187
6.4624 8.8918 20.209
6.4142 8.8938 20.178
6.3949 8.8942 20.181
6.3755 8.8947 20.184
6.3562 8.8951 20.187
6.3369 8.8955 20.19
6.3176 8.896 20.193
6.2855 8.899 20.177
6.2662 8.8994 20.18
6.2469 8.8999 20.183
6.0288 8.9095 20.175
5.9936 8.9089 20.163
5.9743 8.9094 20.166
5.9551 8.9098 20.169
5.9358 8.9103 20.172
5.8972 8.9112 20.177
5.878 8.9116 20.18
5.8305 8.9136 20.149
5.8113 8.9141 20.152
5.792 8.9145 20.155
5.7851 8.9124 20.177
5.7342 8.9159 20.164
5.715 8.9164 20.167
5.68 8.9157 20.155
5.6607 8.9162 20.158
5.6415 8.9167 20.161
5.6258 8.9208 20.16
5.5873 8.9217 20.166
5.568 8.9222 20.169
5.5331 8.9216 20.157
5.5138 8.922 20.16
5.4946 8.9225 20.163
5.3324 8.9273 20.15
5.3131 8.9278 20.153
5.2747 8.9287 20.159
5.2399 8.9281 20.147
5.2244 8.9322 20.146
5.2051 8.9327 20.149
5.1859 8.9332 20.152
5.1667 8.9337 20.155
5.1283 8.9346 20.162
5.1091 8.9351 20.165
5.0744 8.9345 20.152
5.0435 8.9375 20.137
5.0243 8.938 20.14
5.0051 8.9385 20.142
4.9667 8.9395 20.148
4.9359 8.9425 20.133
4.9167 8.943 20.136
4.8975 8.9435 20.139
4.8783 8.944 20.142
4.8591 8.9445 20.145
4.6061 8.9502 20.129
4.5869 8.9507 20.132
4.5524 8.9554 20.135
4.5102 8.9527 20.144
4.4949 8.9569 20.144
4.4757 8.9574 20.147
4.4414 8.9568 20.134
4.4223 8.9573 20.137
4.4031 8.9578 20.14
4.3727 8.9608 20.125
4.3647 8.9588 20.146
4.3194 8.9606 20.115
4.3153 8.9624 20.134
4.2811 8.9617 20.121
4.2619 8.9622 20.124
4.2428 8.9627 20.127
4.2236 8.9632 20.13
4.2044 8.9637 20.133
4.1853 8.9642 20.136
4.1701 8.9685 20.137
4.1509 8.969 20.14
4.1168 8.9683 20.127
4.0977 8.9688 20.13
4.0785 8.9694 20.133
3.9188 8.9743 20.12
3.8996 8.9748 20.123
3.8805 8.9754 20.126
3.8613 8.9759 20.129
3.8083 8.9757 20.12
3.7932 8.98 20.12
3.774 8.9805 20.123
3.7549 8.9811 20.126
3.7357 8.9816 20.129
3.7166 8.9821 20.132
3.6783 8.9832 20.138
3.6486 8.9862 20.123
3.6148 8.9855 20.11
3.5957 8.986 20.113
3.5765 8.9866 20.116
3.5574 8.9871 20.119
3.5233 8.992 20.123
3.4854 8.9874 20.113
3.4704 8.9918 20.113
3.4513 8.9923 20.116
3.2735 8.9978 20.107
3.2544 8.9984 20.11
3.2353 8.9989 20.113
3.2161 8.9995 20.116
3.197 9 20.119
3.1821 9.0044 20.119
3.1486 9.0036 20.107
3.1295 9.0042 20.11
3.1103 9.0047 20.113
3.0912 9.0053 20.116
3.0721 9.0058 20.119
3.0429 9.0089 20.104
3.0238 9.0094 20.107
3.0047 9.01 20.11
2.9713 9.0092 20.097
2.9522 9.0098 20.1
2.9331 9.0103 20.103
2.914 9.0109 20.106
2.8991 9.0153 20.107
2.8758 9.012 20.112
2.8467 9.015 20.097
2.8418 9.0169 20.116
2.8085 9.0161 20.103
2.7894 9.0167 20.106
2.7703 9.0173 20.109
2.7512 9.0178 20.112
2.6317 9.0217 20.093
2.6267 9.0237 20.112
2.5935 9.0229 20.099
2.5744 9.0234 20.102
2.5553 9.024 20.105
2.5406 9.0284 20.106
2.5215 9.029 20.109
2.5024 9.0296 20.112
2.4833 9.0301 20.115
2.4642 9.0307 20.118
2.4451 9.0313 20.121
2.412 9.0304 20.108
2.3929 9.031 20.111
2.3642 9.0341 20.096
2.3451 9.0346 20.099
2.293 9.0343 20.09
2.2878 9.0363 20.108
2.2548 9.0355 20.096
2.2401 9.04 20.097
2.2167 9.0366 20.102
2.2019 9.0411 20.103
2.1638 9.0422 20.109
2.1447 9.0428 20.112
2.1256 9.0434 20.115
1.9497 9.0491 20.105
1.917 9.0482 20.092
1.9023 9.0527 20.093
1.8788 9.0494 20.098
1.8641 9.0539 20.099
1.8451 9.0544 20.102
1.826 9.055 20.105
1.8069 9.0556 20.108
1.7878 9.0562 20.111
1.7687 9.0568 20.114
1.7496 9.0573 20.117
1.7305 9.0579 20.12
1.6979 9.0571 20.107
1.6788 9.0576 20.11
1.6506 9.0607 20.095
1.6406 9.0588 20.116
1.6125 9.0619 20.101
1.5934 9.0625 20.104
1.5552 9.0636 20.11
1.5227 9.0627 20.097
1.5036 9.0633 20.1
1.4845 9.0639 20.103
1.4699 9.0685 20.104
1.4464 9.0651 20.109
1.4318 9.0696 20.11
1.4127 9.0702 20.113
1.3936 9.0708 20.116
1.3523 9.0724 20.086
1.3554 9.072 20.122
1.323 9.0711 20.109
1.3039 9.0717 20.112
1.1806 9.0777 20.112
1.1615 9.0783 20.115
1.1469 9.0829 20.117
1.1146 9.0819 20.104
1.0956 9.0825 20.107
1.0765 9.0831 20.109
1.0574 9.0837 20.112
1.0383 9.0843 20.115
1.0106 9.0874 20.101
1.0002 9.0855 20.121
0.9534 9.0892 20.11
0.93432 9.0898 20.113
0.91524 9.0904 20.116
0.88308 9.0894 20.102
0.864 9.09 20.105
0.84492 9.0906 20.108
0.80676 9.0918 20.114
0.78768 9.0924 20.117
0.76015 9.0955 20.103
0.74108 9.0961 20.105
0.722 9.0967 20.108
0.70293 9.0973 20.111
0.68385 9.0979 20.114
0.6564 9.1009 20.1
0.49093 9.1042 20.107
0.47644 9.1088 20.109
0.45737 9.1095 20.112
0.43829 9.11 20.114
0.41921 9.1107 20.117
0.38735 9.1097 20.104
0.36827 9.1103 20.107
0.34106 9.1134 20.093
0.33012 9.1115 20.113
0.30292 9.1146 20.099
0.28386 9.1152 20.102
0.26478 9.1158 20.104
0.24571 9.1164 20.107
0.20756 9.1176 20.113
0.18848 9.1182 20.116
0.15676 9.1172 20.102
0.14231 9.1219 20.105
0.12324 9.1225 20.107
0.10416 9.1231 20.11
0.085087 9.1237 20.113
0.066009 9.1243 20.116
-0.068869 9.1288 20.1
-0.087938 9.1294 20.103
-0.10701 9.1301 20.105
-0.12144 9.1348 20.108
-0.14516 9.1313 20.111
-0.15959 9.136 20.113
-0.19109 9.135 20.1
-0.19775 9.1372 20.119
-0.21683 9.1378 20.122
-0.2483 9.1368 20.108
-0.26737 9.1374 20.111
-0.28645 9.138 20.114
-0.31322 9.1411 20.1
-0.33228 9.1417 20.103
-0.35135 9.1423 20.106
-0.37043 9.143 20.108
-0.3895 9.1436 20.111
-0.40858 9.1442 20.114
-0.42765 9.1448 20.117
-0.44673 9.1454 20.12
-0.47806 9.1444 20.106
-0.49247 9.1491 20.108
-0.51154 9.1497 20.111
-0.53062 9.1503 20.114
-0.54969 9.1509 20.117
-0.56877 9.1516 20.12
-0.76005 9.1579 20.112
-0.7982 9.1592 20.117
-0.81728 9.1598 20.12
-0.83636 9.1604 20.123
-0.85076 9.1652 20.125
-0.86984 9.1658 20.128
-0.90802 9.167 20.133
-0.93907 9.166 20.12
-0.9462 9.1683 20.139
-0.97723 9.1672 20.125
-0.99632 9.1678 20.128
-1.0226 9.1709 20.114
-1.0417 9.1715 20.117
-1.0608 9.1722 20.12
-1.0799 9.1728 20.122
-1.0989 9.1734 20.125
-1.1371 9.1746 20.131
-1.1562 9.1753 20.133
-1.1753 9.1759 20.136
-1.2015 9.179 20.122
-1.2206 9.1796 20.125
-1.2396 9.1802 20.128
-1.2587 9.1808 20.13
-1.2778 9.1815 20.133
-1.2969 9.1821 20.136
-1.316 9.1827 20.138
-1.3351 9.1834 20.141
-1.3542 9.184 20.144
-1.5064 9.1891 20.13
-1.5255 9.1897 20.132
-1.5446 9.1903 20.135
-1.5637 9.191 20.138
-1.5828 9.1916 20.14
-1.6019 9.1922 20.143
-1.621 9.1928 20.146
-1.6354 9.1977 20.148
-1.6592 9.1941 20.151
-1.6783 9.1947 20.154
-1.6927 9.1996 20.156
-1.7118 9.2002 20.159
-1.7424 9.1991 20.145
-1.75 9.2015 20.164
-1.7806 9.2003 20.15
-1.7996 9.201 20.153
-1.8188 9.2016 20.156
-1.8378 9.2022 20.158
-1.857 9.2028 20.161
-1.8761 9.2035 20.163
-1.9018 9.2066 20.15
-1.9209 9.2072 20.152
-1.9591 9.2085 20.158
-1.9896 9.2073 20.144
-1.9973 9.2097 20.163
-2.0278 9.2086 20.149
-2.0469 9.2092 20.152
-2.0612 9.2141 20.154
-2.0851 9.2105 20.157
-2.0995 9.2154 20.16
-2.1185 9.216 20.162
-2.1377 9.2166 20.165
-2.3845 9.2249 20.163
-2.4037 9.2255 20.165
-2.418 9.2304 20.168
-2.4371 9.231 20.171
-2.4563 9.2317 20.173
-2.4754 9.2323 20.175
-2.4945 9.2329 20.178
-2.5136 9.2336 20.18
-2.5327 9.2342 20.183
-2.5628 9.233 20.169
-2.5882 9.2362 20.156
-2.6073 9.2368 20.158
-2.6264 9.2374 20.161
-2.6455 9.238 20.163
-2.6646 9.2387 20.166
-2.6837 9.2393 20.168
-2.6981 9.2442 20.171
-2.7219 9.2406 20.173
-2.7363 9.2455 20.176
-2.7746 9.2468 20.181
-2.8106 9.2481 20.151
-2.9443 9.2525 20.168
-2.9634 9.2532 20.171
-2.9969 9.2587 20.176
-3.016 9.2594 20.178
-3.0352 9.26 20.18
-3.0543 9.2607 20.183
-3.0734 9.2613 20.185
-3.1032 9.2601 20.172
-3.1282 9.2632 20.158
-3.1473 9.2639 20.161
-3.1664 9.2645 20.163
-3.1855 9.2651 20.165
-3.2046 9.2658 20.168
-3.2237 9.2664 20.17
-3.2428 9.267 20.173
-3.2572 9.272 20.175
-3.306 9.2714 20.164
-3.3146 9.2739 20.182
-3.5936 9.2879 20.183
-3.6128 9.2885 20.186
-3.6319 9.2892 20.188
-3.651 9.2898 20.191
-3.6701 9.2904 20.193
-3.6892 9.2911 20.195
-3.7186 9.2898 20.181
-3.7275 9.2924 20.2
-3.7569 9.2911 20.186
-3.7815 9.2943 20.172
-3.7951 9.2924 20.191
-3.8197 9.2956 20.177
-3.8389 9.2962 20.179
-3.858 9.2968 20.182
-3.8771 9.2975 20.184
-3.8962 9.2981 20.186
-3.9153 9.2988 20.188
-3.9345 9.2994 20.191
-3.9727 9.3007 20.195
-4.0019 9.2994 20.181
-4.0062 9.3064 20.2
-4.0492 9.3032 20.204
-4.0636 9.3083 20.207
-4.0928 9.307 20.193
-4.1119 9.3077 20.195
-4.1311 9.3083 20.197
-4.1402 9.3108 20.216
-4.1693 9.3096 20.202
-4.1884 9.3102 20.204
-4.2076 9.3109 20.206
-4.2267 9.3115 20.208
-4.2458 9.3122 20.21
-4.4233 9.3204 20.214
-4.4424 9.3211 20.216
-4.4615 9.3217 20.219
-4.4807 9.3224 20.221
-4.5049 9.3255 20.207
-4.5241 9.3262 20.209
-4.5432 9.3268 20.212
-4.5623 9.3275 20.214
-4.5815 9.3281 20.216
-4.6006 9.3287 20.218
-4.6248 9.3319 20.204
-4.6439 9.3325 20.206
-4.6631 9.3332 20.209
-4.6822 9.3338 20.211
-4.6963 9.3319 20.228
-4.7204 9.3351 20.215
-4.7396 9.3358 20.217
-4.7587 9.3364 20.219
-4.797 9.3377 20.223
-4.8161 9.3383 20.225
-4.8353 9.339 20.227
-4.8735 9.3402 20.231
-4.9167 9.3441 20.22
-4.9263 9.3466 20.238
-4.955 9.3453 20.224
-4.9741 9.346 20.226
-5.0316 9.3479 20.232
-5.2852 9.3588 20.242
-5.443 9.3665 20.242
-5.4813 9.3678 20.246
-5.5051 9.371 20.233
-5.5433 9.3722 20.236
-5.5816 9.3735 20.24
-5.6008 9.3742 20.242
-5.6199 9.3748 20.244
-5.6536 9.3806 20.248
-5.6727 9.3813 20.25
-5.6965 9.3774 20.251
-5.711 9.3826 20.254
-5.7302 9.3832 20.256
-5.7685 9.3845 20.259
-5.7876 9.3851 20.261
-5.8068 9.3858 20.263
-5.9925 9.3921 20.248
-6.0218 9.3954 20.267
-6.0499 9.3941 20.253
-6.0691 9.3947 20.255
-6.0882 9.3954 20.256
-6.1028 9.4006 20.259
-6.1219 9.4012 20.261
-6.141 9.4018 20.262
-6.1602 9.4025 20.264
-6.1794 9.4031 20.266
-6.1985 9.4038 20.267
-6.2177 9.4044 20.269
-6.256 9.4057 20.273
-6.2751 9.4063 20.274
-6.2984 9.4095 20.261
-6.3176 9.4102 20.262
-6.3942 9.4128 20.269
-6.4516 9.4147 20.274
-7.1445 9.4475 20.3
-7.1828 9.4488 20.302
-7.2594 9.4514 20.308
-7.3014 9.4553 20.296
-7.3206 9.4559 20.297
-7.4355 9.4597 20.305
-7.4738 9.461 20.308
-7.4884 9.4663 20.31
-7.5348 9.4656 20.297
-7.5459 9.4682 20.314
-7.5842 9.4695 20.317
-7.8366 9.4804 20.318
-7.8941 9.4823 20.322
-7.9132 9.4829 20.323
-7.9279 9.4883 20.325
-7.9932 9.4881 20.313
-8.0428 9.4921 20.332
-8.0811 9.4933 20.335
-8.1194 9.4946 20.337
-8.1496 9.4958 20.307
-8.1577 9.4959 20.339
-8.196 9.4971 20.341
-8.2184 9.5004 20.328
-8.3141 9.5036 20.333
-8.3447 9.5069 20.351
-8.3607 9.5049 20.367
-8.3799 9.5055 20.368
-8.4093 9.5009 20.463
8.8673 8.7908 20.302
8.8669 8.7954 20.313
8.7729 8.8039 20.316
8.7339 8.8 20.31
8.7165 8.8038 20.308
8.6969 8.8041 20.31
8.6575 8.8048 20.316
8.6209 8.8043 20.304
8.6182 8.8054 20.322
8.5839 8.8085 20.305
8.5642 8.8088 20.307
8.5276 8.8084 20.296
8.4883 8.809 20.302
8.4517 8.8086 20.29
8.1342 8.8214 20.271
8.1146 8.8218 20.274
8.095 8.8221 20.277
8.0755 8.8225 20.28
8.0391 8.822 20.268
8.0364 8.8232 20.285
7.9859 8.8254 20.254
7.9805 8.8231 20.277
7.9272 8.8265 20.263
7.9077 8.8269 20.266
7.8715 8.8264 20.254
7.8519 8.8267 20.257
7.8351 8.8306 20.255
7.8129 8.8275 20.263
7.7766 8.8317 20.264
7.7404 8.8312 20.252
7.5734 8.8356 20.238
7.5568 8.8396 20.236
7.5345 8.8364 20.244
7.515 8.8368 20.247
7.4818 8.8398 20.23
7.4429 8.8406 20.236
7.4234 8.841 20.239
7.404 8.8414 20.242
7.3709 8.8444 20.225
7.3514 8.8448 20.228
7.332 8.8452 20.231
7.2961 8.8447 20.219
7.2931 8.846 20.237
7.2213 8.8498 20.227
6.9422 8.8554 20.213
6.8902 8.8589 20.199
6.8871 8.8602 20.217
6.8515 8.8597 20.205
6.8321 8.8601 20.208
6.8127 8.8605 20.211
6.764 8.8626 20.18
6.7253 8.8634 20.186
6.7059 8.8638 20.189
6.6866 8.8643 20.192
6.6672 8.8647 20.195
6.651 8.8687 20.194
6.6285 8.8655 20.201
6.5768 8.869 20.188
6.5575 8.8694 20.19
6.5381 8.8698 20.193
6.5188 8.8703 20.196
6.4995 8.8707 20.199
6.3739 8.8745 20.18
6.3546 8.8749 20.183
6.3385 8.8789 20.182
6.3032 8.8784 20.17
6.2839 8.8788 20.173
6.2646 8.8793 20.176
6.2453 8.8797 20.179
6.2067 8.8806 20.185
6.1874 8.881 20.188
6.1555 8.8841 20.172
6.1202 8.8835 20.16
6.1009 8.8839 20.163
6.0817 8.8844 20.166
6.0431 8.8853 20.172
6.0238 8.8857 20.175
5.992 8.8888 20.159
5.9728 8.8892 20.162
5.9535 8.8897 20.165
5.9342 8.8901 20.168
5.6592 8.8961 20.154
5.64 8.8966 20.157
5.6242 8.9007 20.157
5.5858 8.9016 20.163
5.5665 8.9021 20.166
5.5316 8.9015 20.153
5.5124 8.9019 20.156
5.4931 8.9024 20.159
5.4739 8.9029 20.162
5.4234 8.9064 20.15
5.4042 8.9069 20.153
5.3813 8.9037 20.159
5.3502 8.9067 20.143
5.3309 8.9072 20.146
5.3117 8.9077 20.149
5.2769 8.9123 20.152
5.254 8.9091 20.158
5.223 8.9122 20.143
5.2038 8.9126 20.146
5.1845 8.9131 20.149
5.1653 8.9136 20.152
4.9653 8.9194 20.145
4.9461 8.9199 20.148
4.9153 8.923 20.132
4.8924 8.9198 20.138
4.8769 8.924 20.138
4.8578 8.9245 20.141
4.8194 8.9254 20.147
4.8002 8.926 20.15
4.7657 8.9253 20.138
4.7465 8.9258 20.141
4.7273 8.9263 20.144
4.6815 8.9282 20.113
4.6432 8.9292 20.119
4.624 8.9297 20.122
4.6048 8.9302 20.125
4.5856 8.9307 20.128
4.5665 8.9312 20.131
4.5511 8.9354 20.131
4.5128 8.9364 20.137
4.4785 8.9358 20.124
4.2799 8.9417 20.118
4.2757 8.9434 20.136
4.2416 8.9427 20.124
4.2224 8.9432 20.127
4.2072 8.9475 20.127
4.188 8.948 20.13
4.1649 8.9448 20.136
4.1348 8.9479 20.12
4.1156 8.9484 20.123
4.0965 8.9489 20.126
4.0774 8.9494 20.129
4.0582 8.9499 20.132
4.039 8.9505 20.135
4.005 8.9497 20.123
3.975 8.9528 20.108
3.9667 8.9508 20.129
3.9367 8.9539 20.114
3.9176 8.9544 20.117
3.8985 8.9549 20.12
3.8793 8.9554 20.123
3.8602 8.956 20.126
3.8219 8.957 20.132
3.7921 8.9601 20.116
3.7729 8.9606 20.119
3.7538 8.9611 20.122
3.7346 8.9617 20.125
3.6137 8.9656 20.107
3.5946 8.9661 20.11
3.5755 8.9667 20.113
3.5563 8.9672 20.116
3.5181 8.9683 20.122
3.4885 8.9713 20.107
3.4694 8.9719 20.11
3.4503 8.9724 20.113
3.4311 8.973 20.116
3.412 8.9735 20.119
3.3738 8.9746 20.125
3.3298 8.9764 20.094
3.3107 8.9769 20.097
3.306 8.9787 20.116
3.2725 8.978 20.103
3.2534 8.9785 20.106
3.2342 8.9791 20.109
3.2151 8.9796 20.112
3.196 8.9802 20.115
3.1667 8.9832 20.1
3.1476 8.9838 20.103
3.1094 8.9849 20.109
2.9321 8.9905 20.099
2.913 8.991 20.102
2.8939 8.9916 20.105
2.8791 8.996 20.106
2.86 8.9965 20.109
2.8266 8.9958 20.096
2.8075 8.9963 20.099
2.7885 8.9969 20.102
2.7694 8.9974 20.105
2.7503 8.998 20.108
2.7312 8.9986 20.111
2.693 8.9997 20.117
2.6499 9.0014 20.087
2.6308 9.0019 20.09
2.6117 9.0025 20.093
2.5926 9.0031 20.096
2.5779 9.0075 20.097
2.5545 9.0042 20.102
2.5397 9.0086 20.103
2.5206 9.0092 20.106
2.4875 9.0084 20.093
2.4684 9.009 20.096
2.4493 9.0095 20.099
2.4302 9.0101 20.102
2.4111 9.0107 20.105
2.287 9.0166 20.105
2.254 9.0157 20.092
2.2393 9.0202 20.093
2.2158 9.0169 20.098
2.2011 9.0213 20.099
2.182 9.0219 20.102
2.163 9.0225 20.105
2.1301 9.0217 20.092
2.1248 9.0236 20.111
2.0963 9.0267 20.097
2.0728 9.0234 20.101
2.0444 9.0265 20.087
2.0253 9.027 20.09
2.0062 9.0276 20.093
1.9871 9.0282 20.096
1.9681 9.0288 20.099
1.949 9.0293 20.102
1.9299 9.0299 20.105
1.8971 9.029 20.092
1.878 9.0296 20.095
1.859 9.0302 20.098
1.8399 9.0308 20.101
1.8208 9.0314 20.103
1.7871 9.0365 20.108
1.768 9.0371 20.111
1.7489 9.0376 20.114
1.6972 9.0373 20.104
1.522 9.043 20.094
1.5029 9.0436 20.097
1.4838 9.0442 20.1
1.4648 9.0448 20.103
1.4457 9.0454 20.106
1.4311 9.0499 20.107
1.412 9.0505 20.11
1.3929 9.0511 20.113
1.3738 9.0517 20.116
1.3547 9.0523 20.119
1.3223 9.0514 20.106
1.3032 9.052 20.109
1.2753 9.0551 20.094
1.2563 9.0556 20.097
1.2372 9.0562 20.1
1.2181 9.0568 20.103
1.18 9.058 20.109
1.1609 9.0586 20.112
1.1463 9.0632 20.114
1.114 9.0623 20.101
1.095 9.0629 20.104
1.0759 9.0635 20.106
1.0568 9.0641 20.109
1.0377 9.0647 20.112
1.0186 9.0653 20.115
0.99956 9.0658 20.118
0.86342 9.0704 20.102
0.84434 9.071 20.105
0.79772 9.0747 20.094
0.79167 9.0768 20.113
0.77259 9.0774 20.116
0.74052 9.0764 20.102
0.72144 9.077 20.105
0.70237 9.0777 20.108
0.67491 9.0807 20.094
0.66421 9.0788 20.114
0.63678 9.0819 20.1
0.61771 9.0825 20.103
0.59864 9.0831 20.106
0.57956 9.0837 20.108
0.56049 9.0843 20.111
0.52854 9.0834 20.098
0.51406 9.088 20.1
0.49499 9.0886 20.103
0.47592 9.0892 20.106
0.45685 9.0898 20.109
0.43777 9.0905 20.112
0.41869 9.091 20.114
0.39962 9.0917 20.117
0.38054 9.0923 20.12
0.32962 9.0919 20.11
0.19262 9.1027 20.112
0.17354 9.1033 20.115
0.15446 9.1039 20.118
0.12277 9.1029 20.105
0.1037 9.1035 20.107
0.084625 9.1041 20.11
0.065549 9.1047 20.113
0.046472 9.1054 20.116
0.019472 9.1084 20.102
-0.018667 9.1097 20.108
-0.050246 9.1087 20.094
-0.06931 9.1093 20.097
-0.08374 9.114 20.099
-0.10744 9.1105 20.103
-0.12187 9.1152 20.105
-0.14094 9.1158 20.108
-0.16002 9.1164 20.11
-0.17909 9.117 20.113
-0.19817 9.1176 20.116
-0.22964 9.1166 20.103
-0.37082 9.1234 20.106
-0.38989 9.124 20.108
-0.40897 9.1246 20.111
-0.42804 9.1253 20.114
-0.44246 9.13 20.116
-0.47845 9.1248 20.104
-0.49285 9.1296 20.106
-0.51192 9.1302 20.108
-0.53099 9.1308 20.111
-0.55007 9.1314 20.114
-0.56914 9.132 20.117
-0.58822 9.1327 20.12
-0.6073 9.1333 20.122
-0.62638 9.1339 20.125
-0.6576 9.1329 20.112
-0.672 9.1376 20.114
-0.69108 9.1382 20.117
-0.72225 9.1372 20.104
-0.74132 9.1378 20.106
-0.76039 9.1384 20.109
-0.77946 9.139 20.112
-0.79386 9.1438 20.114
-0.81762 9.1403 20.117
-0.83669 9.1409 20.12
-0.85109 9.1457 20.122
-0.87486 9.1421 20.126
-0.90834 9.1475 20.131
-1.0611 9.1527 20.117
-1.1374 9.1552 20.128
-1.1565 9.1558 20.131
-1.1874 9.1547 20.117
-1.2065 9.1553 20.12
-1.2208 9.1601 20.122
-1.2446 9.1566 20.125
-1.259 9.1614 20.128
-1.2781 9.162 20.13
-1.2972 9.1626 20.133
-1.3163 9.1633 20.136
-1.3354 9.1639 20.139
-1.3544 9.1645 20.141
-1.3735 9.1651 20.144
-1.3926 9.1658 20.146
-1.4117 9.1664 20.149
-1.4308 9.167 20.152
-1.4685 9.1684 20.122
-1.4876 9.169 20.125
-1.5067 9.1696 20.127
-1.5258 9.1703 20.13
-1.5449 9.1709 20.133
-1.5639 9.1715 20.135
-1.583 9.1722 20.138
-1.6021 9.1728 20.141
-1.6212 9.1734 20.143
-1.6594 9.1746 20.149
-1.6738 9.1795 20.151
-1.6929 9.1801 20.154
-1.712 9.1807 20.156
-1.7426 9.1796 20.143
-1.7617 9.1803 20.145
-1.7808 9.1809 20.148
-1.7999 9.1815 20.151
-1.9593 9.189 20.155
-1.9784 9.1897 20.158
-2.0088 9.1885 20.144
-2.028 9.1892 20.147
-2.047 9.1898 20.149
-2.0661 9.1904 20.152
-2.0805 9.1953 20.155
-2.0996 9.1959 20.157
-2.1187 9.1966 20.16
-2.1378 9.1972 20.162
-2.1569 9.1978 20.165
-2.1761 9.1984 20.168
-2.1952 9.1991 20.17
-2.2143 9.1997 20.173
-2.2589 9.2035 20.162
-2.2892 9.2023 20.148
-2.3083 9.2029 20.151
-2.3274 9.2036 20.153
-2.3354 9.206 20.172
-2.3656 9.2048 20.158
-2.3847 9.2055 20.161
-2.4038 9.2061 20.163
-2.4182 9.211 20.166
-2.4373 9.2116 20.168
-2.4564 9.2123 20.171
-2.6456 9.2187 20.161
-2.7173 9.2255 20.171
-2.7364 9.2261 20.174
-2.7746 9.2274 20.179
-2.8046 9.2262 20.165
-2.8237 9.2269 20.167
-2.8428 9.2275 20.17
-2.8619 9.2281 20.172
-2.8871 9.2313 20.159
-2.9062 9.2319 20.161
-2.9253 9.2325 20.164
-2.9444 9.2332 20.166
-2.9635 9.2338 20.169
-2.997 9.2394 20.174
-3.0161 9.24 20.176
-3.0352 9.2407 20.178
-3.065 9.2395 20.165
-3.2238 9.2471 20.168
-3.2429 9.2477 20.171
-3.262 9.2484 20.173
-3.2955 9.254 20.178
-3.3298 9.2484 20.164
-3.3337 9.2552 20.183
-3.3633 9.254 20.169
-3.372 9.2565 20.188
-3.4015 9.2553 20.174
-3.4264 9.2584 20.16
-3.4398 9.2566 20.178
-3.4646 9.2597 20.165
-3.4837 9.2604 20.167
-3.5028 9.261 20.17
-3.5219 9.2616 20.172
-3.541 9.2623 20.174
-3.5554 9.2673 20.177
-3.5936 9.2686 20.182
-3.6128 9.2692 20.184
-4.0545 9.2865 20.187
-4.0737 9.2871 20.189
-4.0928 9.2877 20.191
-4.1019 9.2903 20.209
-4.121 9.2909 20.212
-4.1693 9.2903 20.2
-4.1884 9.2909 20.202
-4.2075 9.2916 20.204
-4.2267 9.2922 20.206
-4.2458 9.2929 20.209
-4.2702 9.296 20.195
-4.2893 9.2967 20.197
-4.3084 9.2973 20.2
-4.3467 9.2986 20.204
-4.3658 9.2992 20.206
-4.3849 9.2999 20.208
-4.4284 9.3037 20.197
-4.4423 9.3018 20.215
-4.4615 9.3025 20.217
-4.4857 9.3056 20.203
-4.5095 9.3018 20.205
-4.524 9.3069 20.208
-4.5431 9.3075 20.21
-4.5623 9.3082 20.212
-4.5814 9.3088 20.214
-4.6005 9.3095 20.216
-4.6197 9.3101 20.218
-4.663 9.3139 20.207
-4.7586 9.3171 20.217
-4.7969 9.3184 20.222
-4.816 9.3191 20.224
-4.8352 9.3197 20.226
-4.883 9.3191 20.214
-4.8879 9.3261 20.232
-4.9071 9.3267 20.235
-4.9358 9.3255 20.22
-4.9549 9.3261 20.223
-4.974 9.3268 20.224
-4.9932 9.3274 20.227
-5.0123 9.328 20.229
-5.0315 9.3287 20.23
-5.0506 9.3293 20.233
-5.0746 9.3325 20.219
-5.0937 9.3331 20.221
-5.1128 9.3338 20.223
-5.1319 9.3344 20.225
-5.1511 9.3351 20.227
-5.1702 9.3357 20.229
-5.1894 9.3364 20.231
-5.2085 9.337 20.233
-5.2421 9.3428 20.238
-5.2613 9.3434 20.239
-5.4 9.3505 20.238
-5.7683 9.3653 20.258
-5.8922 9.3672 20.253
-5.9259 9.373 20.257
-5.9642 9.3743 20.261
-5.9834 9.3749 20.262
-6.0115 9.3736 20.248
-6.026 9.3788 20.251
-6.0497 9.3749 20.252
-6.0689 9.3755 20.253
-6.0834 9.3807 20.256
-6.1072 9.3768 20.257
-6.1217 9.382 20.259
-6.1409 9.3826 20.261
-6.1646 9.3787 20.262
-6.1792 9.3839 20.265
-6.1983 9.3846 20.266
-6.2175 9.3852 20.268
-6.3749 9.393 20.266
-6.394 9.3936 20.268
-6.4515 9.3955 20.273
-6.4706 9.3962 20.274
-6.5426 9.4033 20.282
-6.5618 9.404 20.283
-6.585 9.4072 20.27
-6.6278 9.4039 20.272
-6.6384 9.4065 20.29
-6.6662 9.4052 20.275
-6.6853 9.4058 20.277
-6.7276 9.4097 20.265
-6.7467 9.4103 20.266
-6.8233 9.4129 20.273
-6.8424 9.4136 20.274
-7.6223 9.4517 20.319
-7.6989 9.4542 20.324
-7.8938 9.4632 20.321
-7.9085 9.4685 20.323
-7.9659 9.4704 20.327
-7.9851 9.471 20.328
-8.0121 9.4696 20.313
-8.2947 9.4839 20.331
-8.3138 9.4845 20.332
-8.3764 9.4837 20.382
-8.3924 9.4817 20.398
8.8622 8.7759 20.326
8.7908 8.7786 20.297
8.7882 8.7796 20.314
8.7514 8.7792 20.303
8.7318 8.7795 20.306
8.7144 8.7833 20.303
8.6947 8.7836 20.306
8.6554 8.7843 20.312
8.4862 8.7886 20.297
8.469 8.7924 20.295
8.4324 8.792 20.283
8.4128 8.7923 20.286
8.3932 8.7926 20.289
8.3736 8.7929 20.292
8.3175 8.7928 20.283
8.2979 8.7932 20.286
8.2639 8.7963 20.269
8.2443 8.7966 20.272
8.2247 8.7969 20.275
8.1883 8.7965 20.263
8.1491 8.7972 20.269
8.1296 8.7975 20.272
7.8304 8.8067 20.256
7.8109 8.8071 20.258
7.7384 8.8109 20.248
7.7189 8.8112 20.25
7.6994 8.8116 20.253
7.666 8.8147 20.237
7.6466 8.8151 20.24
7.6076 8.8158 20.245
7.5715 8.8153 20.234
7.552 8.8157 20.237
7.5354 8.8196 20.235
7.5131 8.8164 20.242
7.4964 8.8204 20.241
7.477 8.8208 20.244
7.441 8.8203 20.232
7.2748 8.8248 20.218
7.2553 8.8252 20.221
7.2388 8.8291 20.219
7.2194 8.8295 20.222
7.2 8.8299 20.225
7.1642 8.8294 20.213
7.1448 8.8298 20.216
7.1253 8.8302 20.219
7.1059 8.8306 20.222
7.0671 8.8314 20.228
7.0343 8.8345 20.212
7.0149 8.8348 20.215
6.9792 8.8343 20.203
6.9598 8.8347 20.206
6.9404 8.8351 20.209
6.6268 8.8453 20.197
6.5751 8.8488 20.183
6.5558 8.8492 20.186
6.5364 8.8496 20.189
6.5171 8.85 20.192
6.4849 8.8531 20.176
6.4623 8.8499 20.183
6.4462 8.854 20.182
6.4108 8.8534 20.17
6.3915 8.8539 20.173
6.3722 8.8543 20.176
6.3529 8.8547 20.179
6.3336 8.8552 20.182
6.2983 8.8546 20.17
6.2983 8.8596 20.184
6.263 8.8591 20.172
6.2436 8.8595 20.175
6.205 8.8604 20.181
6.1857 8.8608 20.184
6.0449 8.8688 20.164
6.0222 8.8656 20.171
5.987 8.865 20.158
5.9712 8.8691 20.158
5.9519 8.8695 20.161
5.9326 8.87 20.164
5.8941 8.8709 20.17
5.859 8.8703 20.157
5.8398 8.8708 20.16
5.8082 8.8738 20.145
5.7889 8.8743 20.148
5.7697 8.8747 20.151
5.7312 8.8757 20.157
5.7119 8.8761 20.16
5.677 8.8755 20.147
5.6577 8.876 20.15
5.642 8.8801 20.15
5.6227 8.8806 20.153
5.565 8.882 20.162
5.5109 8.8818 20.152
5.2718 8.8886 20.151
5.2408 8.8916 20.136
5.2215 8.8921 20.139
5.2023 8.8926 20.142
5.1831 8.8931 20.145
5.1639 8.8935 20.148
5.1255 8.8945 20.154
5.0908 8.8939 20.141
5.0599 8.897 20.126
5.0407 8.8974 20.129
5.0215 8.8979 20.132
5.0023 8.8984 20.135
4.964 8.8994 20.141
4.9332 8.9025 20.125
4.9293 8.9041 20.144
4.8948 8.9035 20.131
4.8756 8.904 20.134
4.8564 8.9044 20.137
4.818 8.9054 20.143
4.6227 8.9097 20.118
4.6035 8.9102 20.121
4.5844 8.9107 20.124
4.5652 8.9112 20.127
4.546 8.9117 20.13
4.5115 8.9164 20.133
4.4924 8.9169 20.136
4.4581 8.9163 20.124
4.454 8.918 20.142
4.4198 8.9173 20.13
4.4006 8.9178 20.133
4.3623 8.9188 20.139
4.332 8.9219 20.123
4.2978 8.9212 20.111
4.2937 8.9229 20.13
4.2595 8.9223 20.117
4.2404 8.9228 20.12
4.2212 8.9233 20.123
4.2021 8.9238 20.126
4.1829 8.9243 20.129
4.1638 8.9248 20.132
4.1296 8.9241 20.119
4.1145 8.9284 20.12
3.9165 8.9345 20.113
3.8973 8.935 20.116
3.8782 8.9355 20.119
3.8591 8.936 20.122
3.8251 8.9353 20.109
3.8208 8.9371 20.128
3.7909 8.9402 20.113
3.7718 8.9407 20.116
3.7527 8.9412 20.119
3.7336 8.9418 20.122
3.7144 8.9423 20.125
3.6509 8.9446 20.097
3.6464 8.9464 20.116
3.6126 8.9457 20.103
3.5935 8.9462 20.106
3.5744 8.9468 20.109
3.5553 8.9473 20.112
3.517 8.9484 20.118
3.4874 8.9515 20.103
3.4683 8.952 20.106
3.4492 8.9526 20.109
3.4301 8.9531 20.112
3.411 8.9536 20.115
3.2906 8.9576 20.096
3.2715 8.9581 20.099
3.2523 8.9587 20.102
3.2332 8.9592 20.105
3.2141 8.9598 20.108
3.195 8.9603 20.111
3.1759 8.9609 20.114
3.1466 8.9639 20.099
3.1275 8.9645 20.103
3.1084 8.965 20.106
3.0893 8.9656 20.109
3.0702 8.9661 20.112
3.0511 8.9667 20.115
3.032 8.9672 20.118
2.9884 8.969 20.087
2.9693 8.9695 20.09
2.9503 8.9701 20.093
2.9312 8.9707 20.096
2.9121 8.9712 20.099
2.893 8.9718 20.102
2.8739 8.9723 20.105
2.859 8.9767 20.106
2.8399 8.9773 20.109
2.8066 8.9765 20.096
2.7875 8.9771 20.099
2.7302 8.9787 20.108
2.5918 8.9833 20.092
2.5536 8.9844 20.098
2.5345 8.985 20.101
2.5197 8.9894 20.102
2.4866 8.9886 20.09
2.4675 8.9892 20.093
2.4624 8.9911 20.111
2.4294 8.9903 20.099
2.4103 8.9909 20.102
2.3912 8.9914 20.105
2.3625 8.9945 20.09
2.3434 8.9951 20.093
2.2913 8.9948 20.083
2.2723 8.9954 20.086
2.2532 8.996 20.089
2.2341 8.9965 20.092
2.215 8.9971 20.095
2.1959 8.9977 20.098
2.1622 9.0027 20.102
2.1431 9.0033 20.105
2.1102 9.0025 20.092
2.1049 9.0045 20.111
2.072 9.0036 20.098
1.9345 9.0082 20.082
1.9154 9.0087 20.085
1.8964 9.0093 20.088
1.8773 9.0099 20.091
1.8582 9.0105 20.094
1.8436 9.015 20.096
1.8201 9.0116 20.1
1.7863 9.0167 20.105
1.7628 9.0134 20.109
1.7482 9.0179 20.111
1.7155 9.017 20.098
1.71 9.0191 20.116
1.6774 9.0182 20.103
1.6583 9.0188 20.106
1.6392 9.0194 20.109
1.6111 9.0225 20.095
1.592 9.023 20.098
1.5538 9.0242 20.104
1.5348 9.0248 20.107
1.5067 9.0279 20.092
1.4831 9.0245 20.097
1.4641 9.0251 20.099
1.445 9.0257 20.102
1.4304 9.0302 20.104
1.4113 9.0308 20.107
1.3922 9.0314 20.11
1.3732 9.032 20.113
1.3541 9.0326 20.116
1.335 9.0332 20.119
1.3026 9.0323 20.106
1.1648 9.0429 20.108
1.1457 9.0435 20.111
1.1089 9.0386 20.099
1.0943 9.0432 20.1
1.0753 9.0438 20.103
1.0562 9.0444 20.106
1.0371 9.045 20.109
1.018 9.0456 20.112
0.98581 9.0447 20.099
0.97127 9.0493 20.101
0.93909 9.0484 20.087
0.92003 9.049 20.09
0.90097 9.0495 20.093
0.8819 9.0502 20.096
0.86283 9.0508 20.099
0.84376 9.0513 20.102
0.82469 9.0519 20.105
0.81017 9.0566 20.107
0.77808 9.0556 20.094
0.75902 9.0562 20.097
0.73995 9.0568 20.099
0.72088 9.0574 20.102
0.70181 9.058 20.105
0.68273 9.0586 20.108
0.54708 9.0632 20.092
0.52801 9.0638 20.095
0.51353 9.0684 20.097
0.49446 9.069 20.1
0.4754 9.0696 20.103
0.43726 9.0708 20.109
0.41818 9.0715 20.112
0.3991 9.0721 20.114
0.38003 9.0727 20.117
0.34819 9.0717 20.104
0.32099 9.0748 20.09
0.30193 9.0754 20.093
0.28287 9.076 20.096
0.2638 9.0766 20.099
0.24474 9.0772 20.101
0.21121 9.0825 20.106
0.19214 9.0831 20.109
0.15581 9.0781 20.097
0.14136 9.0827 20.099
0.1223 9.0833 20.102
0.10323 9.084 20.105
0.08416 9.0846 20.107
0.065088 9.0852 20.11
-0.10324 9.095 20.099
-0.12231 9.0956 20.102
-0.14138 9.0963 20.105
-0.16045 9.0969 20.108
-0.19193 9.0959 20.094
-0.19859 9.0981 20.113
-0.21766 9.0987 20.116
-0.23674 9.0993 20.119
-0.2682 9.0983 20.106
-0.29497 9.1014 20.092
-0.31403 9.102 20.095
-0.33309 9.1027 20.097
-0.35216 9.1033 20.1
-0.37122 9.1039 20.103
-0.39029 9.1045 20.106
-0.40936 9.1051 20.109
-0.42843 9.1057 20.111
-0.4475 9.1064 20.114
-0.47416 9.1094 20.1
-0.481 9.1117 20.119
-0.5123 9.1107 20.106
-0.53137 9.1113 20.109
-0.55044 9.1119 20.111
-0.56951 9.1125 20.114
-0.70354 9.1171 20.098
-0.74167 9.1183 20.104
-0.76074 9.1189 20.106
-0.7798 9.1195 20.109
-0.79888 9.1202 20.112
-0.83234 9.1256 20.117
-0.85142 9.1262 20.12
-0.8705 9.1268 20.122
-0.92063 9.1264 20.112
-0.93971 9.127 20.115
-0.95878 9.1276 20.117
-0.9851 9.1307 20.104
-1.0042 9.1313 20.106
-1.0232 9.1319 20.109
-1.0423 9.1326 20.112
-1.0614 9.1332 20.114
-1.0805 9.1338 20.117
-1.0995 9.1344 20.12
-1.1186 9.1351 20.123
-1.1495 9.134 20.109
-1.1568 9.1363 20.128
-1.1877 9.1352 20.115
-1.1949 9.1376 20.134
-1.2211 9.1407 20.12
-1.2284 9.143 20.139
-1.2593 9.1419 20.125
-1.2784 9.1425 20.128
-1.2974 9.1432 20.131
-1.3165 9.1438 20.133
-1.5451 9.1515 20.13
-1.5833 9.1527 20.136
-1.6023 9.1533 20.138
-1.6214 9.154 20.141
-1.6596 9.1552 20.146
-1.6855 9.1583 20.132
-1.6931 9.1607 20.151
-1.7237 9.1596 20.138
-1.7313 9.1619 20.157
-1.7619 9.1608 20.143
-1.7695 9.1632 20.162
-1.7886 9.1638 20.165
-1.8192 9.1627 20.151
-1.8383 9.1633 20.154
-1.8574 9.164 20.156
-1.8831 9.1671 20.142
-1.9022 9.1677 20.145
-1.9147 9.1659 20.164
-1.9595 9.1696 20.153
-1.9786 9.1702 20.155
-2.009 9.1691 20.142
-2.0281 9.1697 20.145
-2.0472 9.1704 20.147
-2.0663 9.171 20.15
-2.0854 9.1716 20.152
-2.0998 9.1765 20.155
-2.1076 9.1789 20.174
-2.138 9.1778 20.16
-2.1571 9.1784 20.163
-2.1762 9.179 20.165
-2.2973 9.1853 20.164
-2.3164 9.186 20.167
-2.3466 9.1848 20.153
-2.3657 9.1854 20.156
-2.3801 9.1904 20.158
-2.3992 9.191 20.161
-2.4183 9.1916 20.163
-2.4374 9.1922 20.166
-2.4756 9.1935 20.171
-2.4947 9.1942 20.174
-2.5139 9.1948 20.176
-2.5502 9.1961 20.146
-2.5583 9.1985 20.165
-2.5884 9.1974 20.151
-2.6075 9.198 20.154
-2.6266 9.1987 20.156
-2.6457 9.1993 20.159
-2.6648 9.1999 20.161
-2.6839 9.2006 20.164
-2.6983 9.2055 20.166
-2.7174 9.2061 20.169
-2.7747 9.208 20.177
-2.7938 9.2087 20.179
-2.9445 9.2138 20.164
-3.0018 9.2157 20.171
-3.046 9.2195 20.16
-3.0651 9.2201 20.163
-3.0842 9.2208 20.165
-3.1092 9.2239 20.152
-3.1283 9.2246 20.154
-3.1474 9.2252 20.157
-3.1665 9.2258 20.159
-3.1856 9.2265 20.161
-3.2047 9.2271 20.164
-3.2238 9.2277 20.166
-3.2429 9.2284 20.169
-3.262 9.229 20.171
-3.306 9.2328 20.16
-3.3251 9.2334 20.162
-3.3338 9.2359 20.181
-3.3634 9.2347 20.167
-3.3882 9.2379 20.154
-3.5219 9.2423 20.17
-3.541 9.243 20.172
-3.5602 9.2436 20.175
-3.5937 9.2492 20.18
-3.6128 9.2499 20.182
-3.6319 9.2505 20.184
-3.651 9.2512 20.187
-3.6804 9.25 20.173
-3.6995 9.2506 20.175
-3.7186 9.2512 20.177
-3.7378 9.2519 20.18
-3.7569 9.2525 20.182
-3.776 9.2532 20.184
-3.7951 9.2538 20.187
-3.8197 9.257 20.173
-3.8388 9.2576 20.176
-3.858 9.2582 20.178
-3.8771 9.2589 20.18
-3.8962 9.2595 20.182
-3.9153 9.2602 20.185
-3.9344 9.2608 20.187
-3.9727 9.2621 20.192
-3.9918 9.2627 20.194
-4.0062 9.2678 20.196
-4.03 9.264 20.198
-4.0445 9.2691 20.201
-4.0736 9.2678 20.187
-4.1119 9.2691 20.192
-4.131 9.2697 20.194
-4.1501 9.2704 20.196
-4.4857 9.2864 20.202
-4.5048 9.287 20.204
-4.5239 9.2876 20.206
-4.5622 9.2889 20.21
-4.5813 9.2896 20.212
-4.6005 9.2902 20.215
-4.6196 9.2909 20.217
-4.6387 9.2915 20.219
-4.6629 9.2947 20.205
-4.682 9.2953 20.207
-4.7011 9.296 20.209
-4.7203 9.2966 20.212
-4.7394 9.2973 20.214
-4.7585 9.2979 20.216
-4.7968 9.2992 20.22
-4.8159 9.2998 20.222
-4.8351 9.3005 20.224
-4.8829 9.2998 20.212
-4.8878 9.3069 20.231
-4.9165 9.3056 20.217
-4.9357 9.3062 20.219
-4.9548 9.3069 20.221
-4.9739 9.3075 20.223
-4.9931 9.3081 20.225
-5.0122 9.3088 20.227
-5.151 9.3158 20.226
-5.1701 9.3165 20.227
-5.1893 9.3171 20.23
-5.2037 9.3223 20.232
-5.2467 9.3191 20.235
-5.2612 9.3242 20.238
-5.2896 9.3229 20.224
-5.2995 9.3255 20.242
-5.3186 9.3261 20.244
-5.3377 9.3268 20.246
-5.3569 9.3274 20.248
-5.3853 9.3261 20.234
-5.3952 9.3287 20.252
-5.419 9.3319 20.238
-5.4474 9.3306 20.224
-5.4665 9.3313 20.226
-5.4856 9.3319 20.228
-5.5239 9.3332 20.232
-5.5431 9.3338 20.233
-5.5622 9.3345 20.235
-5.5813 9.3351 20.237
-5.5958 9.3403 20.24
-5.615 9.3409 20.242
-5.6579 9.3377 20.245
-5.7107 9.3442 20.251
-5.7298 9.3448 20.253
-6.2215 9.3686 20.252
-6.2598 9.3699 20.255
-6.2981 9.3712 20.258
-6.3172 9.3719 20.26
-6.3364 9.3725 20.262
-6.3746 9.3738 20.265
-6.3938 9.3744 20.267
-6.413 9.3751 20.268
-6.4467 9.3809 20.273
-6.4745 9.3796 20.258
-6.4936 9.3802 20.26
-6.5041 9.3829 20.277
-6.5233 9.3835 20.279
-6.5616 9.3848 20.282
-6.5893 9.3834 20.268
-6.5999 9.3861 20.285
-6.7656 9.3918 20.267
-6.8039 9.3931 20.27
-6.8231 9.3938 20.271
-6.8613 9.395 20.274
-6.8805 9.3957 20.276
-6.8996 9.3963 20.277
-6.9142 9.4016 20.28
-6.9334 9.4022 20.282
-6.9908 9.4041 20.286
-7.01 9.4048 20.288
-7.0291 9.4054 20.289
-7.0483 9.4061 20.29
-7.0674 9.4067 20.292
-7.1057 9.408 20.295
-7.1249 9.4086 20.296
-7.144 9.4093 20.298
-7.1823 9.4106 20.3
-7.2244 9.4145 20.288
-7.2435 9.4151 20.29
-7.2627 9.4157 20.291
-7.2818 9.4164 20.293
-7.301 9.417 20.294
-7.3201 9.4177 20.295
-8.0423 9.4539 20.331
-8.0884 9.4531 20.317
-8.237 9.4629 20.327
-8.2944 9.4648 20.331
-8.3136 9.4654 20.332
-8.341 9.466 20.365
-8.3602 9.4667 20.366
8.8803 8.7461 20.296
8.8628 8.7499 20.293
8.7689 8.7584 20.296
8.7686 8.763 20.308
8.6925 8.7632 20.302
8.6532 8.7638 20.307
8.6189 8.7669 20.291
8.5992 8.7672 20.293
8.5626 8.7668 20.282
8.543 8.7671 20.285
8.5233 8.7675 20.288
8.4841 8.7681 20.293
8.4644 8.7684 20.296
8.4303 8.7715 20.279
8.4107 8.7719 20.282
8.3911 8.7722 20.285
8.3715 8.7725 20.288
8.3154 8.7724 20.279
8.1471 8.7768 20.265
8.1301 8.7806 20.263
8.1079 8.7775 20.271
8.0909 8.7813 20.268
8.0714 8.7817 20.271
8.0518 8.782 20.274
8.0155 8.7816 20.262
7.996 8.782 20.265
7.9623 8.785 20.249
7.9232 8.7857 20.254
7.9037 8.7861 20.257
7.8675 8.7856 20.246
7.8479 8.786 20.248
7.8311 8.7899 20.247
7.7531 8.7914 20.258
7.5334 8.7993 20.231
7.4945 8.8001 20.236
7.4196 8.8003 20.23
7.4002 8.8007 20.233
7.3807 8.8011 20.236
7.3477 8.8042 20.22
7.3282 8.8046 20.223
7.3088 8.805 20.226
7.2729 8.8045 20.214
7.2535 8.8049 20.217
7.237 8.8088 20.215
7.2146 8.8056 20.223
7.1952 8.806 20.226
7.1623 8.8091 20.209
7.1429 8.8095 20.212
6.958 8.8145 20.202
6.9386 8.8149 20.204
6.8867 8.8184 20.191
6.8673 8.8188 20.194
6.8479 8.8192 20.197
6.8286 8.8196 20.2
6.8092 8.82 20.203
6.7898 8.8204 20.206
6.7218 8.823 20.178
6.7024 8.8234 20.181
6.6831 8.8238 20.184
6.6637 8.8242 20.187
6.6444 8.8247 20.19
6.625 8.8251 20.192
6.3513 8.8345 20.175
6.2773 8.8348 20.169
6.258 8.8353 20.172
6.242 8.8393 20.171
6.2227 8.8398 20.174
6.2034 8.8402 20.177
6.1682 8.8397 20.165
6.1363 8.8428 20.149
6.117 8.8432 20.152
6.0977 8.8436 20.155
6.0785 8.8441 20.158
6.0399 8.845 20.164
6.0206 8.8454 20.167
5.9889 8.8485 20.151
5.9696 8.849 20.154
5.9504 8.8494 20.157
5.9311 8.8498 20.16
5.8767 8.8497 20.15
5.7297 8.8555 20.153
5.7104 8.856 20.155
5.6754 8.8554 20.143
5.6597 8.8596 20.143
5.637 8.8564 20.149
5.6212 8.8605 20.149
5.5828 8.8614 20.155
5.5635 8.8619 20.158
5.5286 8.8613 20.145
5.5251 8.8628 20.164
5.4902 8.8622 20.151
5.4589 8.8653 20.136
5.4205 8.8663 20.142
5.3857 8.8657 20.13
5.3665 8.8661 20.133
5.3473 8.8666 20.136
5.3281 8.8671 20.139
5.3088 8.8675 20.142
5.2585 8.8711 20.129
5.2393 8.8716 20.132
5.2201 8.8721 20.135
5.2009 8.8725 20.138
5.1625 8.8735 20.144
5.0969 8.876 20.116
5.001 8.8784 20.131
4.8934 8.8834 20.128
4.8743 8.8839 20.131
4.8551 8.8844 20.134
4.8167 8.8854 20.14
4.7975 8.8859 20.143
4.7631 8.8853 20.13
4.7439 8.8858 20.133
4.7133 8.8889 20.118
4.6941 8.8894 20.121
4.6406 8.8892 20.111
4.6366 8.8909 20.13
4.6022 8.8902 20.117
4.5831 8.8907 20.12
4.5639 8.8912 20.123
4.5486 8.8955 20.123
4.5103 8.8965 20.13
4.4911 8.897 20.133
4.472 8.8975 20.136
4.4377 8.8968 20.123
4.4185 8.8973 20.126
4.3994 8.8978 20.129
4.2392 8.9028 20.116
4.22 8.9033 20.119
4.2009 8.9039 20.122
4.1856 8.9081 20.122
4.1626 8.9049 20.128
4.1324 8.908 20.113
4.1133 8.9085 20.116
4.0941 8.909 20.119
4.075 8.9095 20.122
4.0559 8.9101 20.125
4.0367 8.9106 20.128
4.0176 8.9111 20.131
3.9876 8.9142 20.116
3.9644 8.9109 20.122
3.9345 8.914 20.106
3.9153 8.9145 20.109
3.8962 8.9151 20.112
3.8771 8.9156 20.115
3.8579 8.9161 20.118
3.824 8.9154 20.106
3.8237 8.921 20.122
3.7898 8.9203 20.109
3.7707 8.9208 20.112
3.5733 8.9269 20.105
3.5542 8.9274 20.109
3.5201 8.9323 20.112
3.4823 8.9278 20.102
3.4673 8.9321 20.103
3.4482 8.9327 20.106
3.4291 8.9332 20.109
3.4099 8.9338 20.112
3.3717 8.9349 20.118
3.3526 8.9354 20.121
3.319 8.9346 20.108
3.2895 8.9377 20.093
3.2704 8.9383 20.096
3.2513 8.9388 20.099
3.2322 8.9394 20.102
3.2131 8.9399 20.105
3.1982 8.9443 20.106
3.1749 8.941 20.111
3.1414 8.9403 20.098
3.1265 8.9446 20.099
3.1074 8.9452 20.102
3.0119 8.948 20.117
2.9684 8.9497 20.086
2.9636 8.9516 20.105
2.9302 8.9508 20.092
2.9111 8.9514 20.095
2.892 8.952 20.098
2.8729 8.9525 20.101
2.8439 8.9556 20.087
2.8248 8.9561 20.09
2.8057 8.9567 20.093
2.7866 8.9573 20.096
2.7675 8.9578 20.099
2.7484 8.9584 20.102
2.7293 8.9589 20.105
2.677 8.9587 20.095
2.6622 8.9632 20.096
2.629 8.9624 20.083
2.6099 8.9629 20.086
2.5909 8.9635 20.089
2.5718 8.9641 20.092
2.5527 8.9646 20.095
2.5379 8.9691 20.096
2.5188 8.9696 20.099
2.4998 8.9702 20.102
2.4667 8.9694 20.089
2.4476 8.97 20.092
2.2333 8.9768 20.088
2.2142 8.9774 20.091
2.1951 8.9779 20.095
2.1613 8.983 20.099
2.1284 8.9822 20.086
2.1094 8.9827 20.089
2.0903 8.9833 20.092
2.0712 8.9839 20.095
2.0522 8.9845 20.098
2.0237 8.9876 20.083
2.0046 8.9881 20.086
1.9856 8.9887 20.089
1.9665 8.9893 20.092
1.9474 8.9899 20.095
1.9147 8.989 20.082
1.8956 8.9896 20.085
1.8765 8.9902 20.088
1.8575 8.9908 20.091
1.8428 8.9953 20.093
1.8237 8.9959 20.095
1.7856 8.997 20.101
1.7665 8.9976 20.104
1.7338 8.9968 20.091
1.7148 8.9973 20.094
1.6957 8.9979 20.097
1.6766 8.9985 20.1
1.6576 8.9991 20.103
1.5015 9.0042 20.09
1.4825 9.0048 20.093
1.4634 9.0054 20.096
1.4488 9.01 20.098
1.4252 9.0066 20.102
1.4106 9.0112 20.104
1.3916 9.0117 20.107
1.3725 9.0123 20.11
1.3534 9.0129 20.113
1.321 9.012 20.1
1.3019 9.0126 20.102
1.2829 9.0132 20.105
1.2638 9.0138 20.108
1.2359 9.0169 20.094
1.2256 9.015 20.114
1.1655 9.0172 20.087
1.1596 9.0193 20.106
1.1273 9.0184 20.093
1.1128 9.023 20.094
1.0937 9.0236 20.097
1.0746 9.0242 20.1
1.0556 9.0247 20.103
1.0365 9.0253 20.106
1.0174 9.0259 20.109
0.84318 9.0317 20.099
0.80504 9.0329 20.105
0.79052 9.0375 20.107
0.77145 9.0381 20.11
0.73938 9.0372 20.096
0.72032 9.0378 20.099
0.70125 9.0384 20.102
0.68218 9.039 20.105
0.66311 9.0396 20.108
0.64403 9.0402 20.111
0.61662 9.0433 20.097
0.59755 9.0439 20.1
0.57848 9.0445 20.103
0.55941 9.0451 20.105
0.52748 9.0442 20.092
0.513 9.0488 20.094
0.48935 9.0454 20.098
0.47487 9.05 20.1
0.45581 9.0506 20.103
0.43674 9.0512 20.106
0.41767 9.0518 20.109
0.38582 9.0509 20.095
0.37952 9.0531 20.114
0.34769 9.0521 20.101
0.26331 9.057 20.096
0.24424 9.0576 20.099
0.20611 9.0589 20.104
0.19166 9.0635 20.106
0.17259 9.0641 20.109
0.14089 9.0632 20.096
0.12183 9.0638 20.099
0.10276 9.0644 20.102
0.083695 9.065 20.105
0.064626 9.0656 20.107
0.045555 9.0662 20.11
0.018561 9.0693 20.096
-0.00050155 9.0699 20.099
-0.019566 9.0706 20.102
-0.038633 9.0712 20.105
-0.057702 9.0718 20.108
-0.089256 9.0708 20.094
-0.10832 9.0714 20.097
-0.12738 9.072 20.1
-0.14181 9.0767 20.102
-0.16087 9.0773 20.105
-0.17994 9.0779 20.108
-0.21142 9.077 20.094
-0.21808 9.0792 20.113
-0.27632 9.0813 20.086
-0.31444 9.0825 20.092
-0.39069 9.085 20.103
-0.42416 9.0903 20.108
-0.44323 9.0909 20.111
-0.4623 9.0916 20.114
-0.48138 9.0922 20.116
-0.51268 9.0912 20.103
-0.53174 9.0918 20.106
-0.55081 9.0924 20.109
-0.56988 9.093 20.111
-0.60803 9.0943 20.117
-0.63458 9.0974 20.103
-0.65365 9.098 20.106
-0.68483 9.0969 20.093
-0.70389 9.0976 20.095
-0.71086 9.0998 20.114
-0.74201 9.0988 20.101
-0.76108 9.0994 20.104
-0.78015 9.1 20.107
-0.79454 9.1048 20.109
-0.81361 9.1054 20.112
-0.83268 9.1061 20.114
-0.85175 9.1067 20.117
-0.87083 9.1073 20.12
-0.90898 9.1085 20.125
-0.94003 9.1075 20.112
-1.0617 9.1137 20.112
-1.0808 9.1143 20.115
-1.0998 9.115 20.117
-1.1498 9.1145 20.107
-1.1689 9.1152 20.109
-1.1715 9.1216 20.128
-1.1952 9.1181 20.131
-1.2261 9.117 20.117
-1.2405 9.1218 20.12
-1.2596 9.1225 20.123
-1.2786 9.1231 20.125
-1.2977 9.1237 20.128
-1.3168 9.1243 20.131
-1.355 9.1256 20.136
-1.3741 9.1262 20.139
-1.4001 9.1293 20.125
-1.4192 9.1299 20.128
-1.443 9.1264 20.131
-1.4621 9.127 20.134
-1.4881 9.1301 20.12
-1.5072 9.1308 20.122
-1.5263 9.1314 20.125
-1.5453 9.132 20.128
-1.5644 9.1326 20.13
-1.5835 9.1333 20.133
-1.6026 9.1339 20.136
-1.6217 9.1345 20.138
-1.6551 9.14 20.143
-1.6742 9.1406 20.146
-1.7095 9.1353 20.133
-1.7124 9.1419 20.151
-1.7315 9.1425 20.154
-1.7812 9.142 20.143
-1.9788 9.1508 20.153
-2.0283 9.1503 20.142
-2.0474 9.151 20.145
-2.0618 9.1558 20.147
-2.0809 9.1565 20.15
-2.1 9.1571 20.152
-2.1191 9.1577 20.155
-2.1382 9.1584 20.158
-2.1573 9.159 20.16
-2.1764 9.1596 20.163
-2.1955 9.1603 20.166
-2.2146 9.1609 20.168
-2.2401 9.164 20.154
-2.2704 9.1629 20.141
-2.2895 9.1635 20.143
-2.2974 9.1659 20.162
-2.3277 9.1648 20.148
-2.3468 9.1654 20.151
-2.3659 9.1661 20.154
-2.3802 9.171 20.156
-2.3993 9.1716 20.159
-2.4184 9.1722 20.161
-2.4375 9.1729 20.164
-2.4758 9.1741 20.169
-2.6267 9.1793 20.154
-2.6458 9.1799 20.157
-2.6649 9.1806 20.159
-2.684 9.1812 20.162
-2.6984 9.1861 20.164
-2.7222 9.1825 20.167
-2.7366 9.1874 20.169
-2.7557 9.188 20.172
-2.7748 9.1887 20.174
-2.794 9.1893 20.177
-2.83 9.1906 20.147
-2.8491 9.1913 20.15
-2.8681 9.1919 20.152
-2.8872 9.1926 20.154
-2.9064 9.1932 20.157
-2.9255 9.1938 20.16
-2.9446 9.1945 20.162
-2.9637 9.1951 20.164
-2.9971 9.2007 20.169
-3.0163 9.2013 20.172
-3.046 9.2002 20.158
-3.2956 9.2153 20.174
-3.3147 9.2159 20.176
-3.3443 9.2148 20.163
-3.3529 9.2172 20.181
-3.3825 9.216 20.167
-3.4016 9.2167 20.17
-3.4207 9.2173 20.172
-3.4455 9.2205 20.159
-3.4589 9.2186 20.177
-3.4781 9.2192 20.179
-3.5029 9.2224 20.166
-3.5219 9.223 20.168
-3.5411 9.2237 20.17
-3.5705 9.2225 20.157
-3.5937 9.2299 20.178
-3.6128 9.2306 20.18
-3.6319 9.2312 20.183
-3.666 9.2256 20.168
-3.6804 9.2307 20.171
-3.6893 9.2332 20.189
-3.7186 9.2319 20.176
-3.7569 9.2332 20.18
-3.9344 9.2415 20.185
-3.9726 9.2428 20.19
-3.9918 9.2434 20.192
-4.0109 9.2441 20.194
-4.03 9.2447 20.196
-4.0491 9.2454 20.199
-4.0783 9.2441 20.185
-4.0874 9.2466 20.203
-4.1065 9.2473 20.205
-4.131 9.2505 20.192
-4.1501 9.2511 20.194
-4.1692 9.2517 20.196
-4.1783 9.2543 20.215
-4.2074 9.253 20.201
-4.2266 9.2537 20.203
-4.2457 9.2543 20.205
-4.2648 9.2549 20.207
-4.284 9.2556 20.21
-4.3031 9.2562 20.212
-4.3466 9.2601 20.201
-4.3657 9.2607 20.203
-4.3848 9.2613 20.205
-4.3993 9.2664 20.207
-4.4231 9.2626 20.209
-4.452 9.2614 20.195
-4.4665 9.2665 20.198
-4.4856 9.2671 20.2
-4.5047 9.2677 20.202
-4.8973 9.2857 20.213
-4.9547 9.2876 20.219
-5.0121 9.2896 20.225
-5.0361 9.2928 20.212
-5.0504 9.2908 20.23
-5.0743 9.2941 20.216
-5.0934 9.2947 20.218
-5.1126 9.2953 20.22
-5.1317 9.296 20.222
-5.1509 9.2966 20.224
-5.17 9.2973 20.226
-5.1845 9.3024 20.229
-5.2083 9.2986 20.23
-5.2466 9.2998 20.234
-5.261 9.305 20.237
-5.2802 9.3056 20.238
-5.2993 9.3063 20.241
-5.3278 9.305 20.226
-5.3376 9.3076 20.244
-5.3661 9.3063 20.23
-5.3852 9.3069 20.232
-5.562 9.3153 20.234
-5.5812 9.3159 20.236
-5.6003 9.3166 20.238
-5.6148 9.3217 20.24
-5.634 9.3224 20.242
-5.6531 9.323 20.244
-5.6723 9.3237 20.246
-5.6914 9.3243 20.248
-5.7105 9.3249 20.25
-5.7297 9.3256 20.252
-5.7815 9.3275 20.224
-5.7871 9.3275 20.257
-5.8063 9.3282 20.259
-5.849 9.332 20.247
-5.8681 9.3327 20.249
-5.8873 9.3333 20.251
-5.9345 9.3327 20.238
-5.9537 9.3333 20.24
-5.9639 9.3359 20.258
-5.983 9.3366 20.26
-6.0022 9.3372 20.262
-6.0448 9.3411 20.25
-6.0831 9.3424 20.253
-6.1213 9.3437 20.257
-6.6188 9.3676 20.286
-6.6888 9.3701 20.259
-6.7271 9.3714 20.263
-6.7463 9.372 20.264
-6.7846 9.3733 20.267
-6.8037 9.374 20.269
-6.842 9.3753 20.272
-6.8611 9.3759 20.273
-6.8803 9.3765 20.275
-6.8948 9.3818 20.277
-6.914 9.3824 20.279
-6.9332 9.3831 20.28
-6.9523 9.3837 20.282
-6.9714 9.3844 20.284
-6.9906 9.385 20.285
-7.0097 9.3857 20.287
-7.0289 9.3863 20.288
-7.1055 9.3889 20.294
-7.3582 9.3998 20.297
-7.3965 9.4011 20.3
-7.4348 9.4024 20.303
-7.4494 9.4077 20.305
-7.5114 9.4049 20.308
-7.5835 9.4121 20.314
-7.6026 9.4128 20.316
-7.6217 9.4134 20.317
-7.6792 9.4153 20.321
-7.7019 9.4186 20.307
-8.3919 9.4435 20.397
-8.4034 9.4461 20.414
8.8603 8.7339 20.3
8.8406 8.7342 20.303
8.8035 8.7384 20.303
8.7838 8.7387 20.306
8.4819 8.7477 20.289
8.4454 8.7472 20.277
8.4282 8.7511 20.275
8.4086 8.7514 20.278
8.3865 8.7482 20.286
8.3694 8.7521 20.283
8.3133 8.752 20.275
8.2937 8.7523 20.278
8.2597 8.7554 20.261
8.2401 8.7558 20.264
8.2205 8.7561 20.267
8.1841 8.7557 20.255
8.1646 8.756 20.258
8.145 8.7564 20.261
8.1255 8.7567 20.264
8.1059 8.7571 20.266
8.0889 8.7609 20.264
8.0694 8.7613 20.267
8.0498 8.7616 20.27
8.0303 8.762 20.273
7.9939 8.7616 20.261
7.9744 8.7619 20.264
7.8096 8.7699 20.245
7.754 8.7698 20.236
7.7345 8.7702 20.239
7.715 8.7706 20.242
