-2.2391 3.1782 19.562
-2.2569 3.1786 19.566
-2.3299 3.1893 19.571
-2.3477 3.1896 19.575
-2.3756 3.1912 19.562
-2.3991 3.1967 19.551
-2.4169 3.1971 19.555
-2.4306 3.2015 19.562
-2.4762 3.2034 19.553
-2.5766 3.2156 19.545
-2.5945 3.2159 19.549
-2.6124 3.2163 19.554
-2.6358 3.2218 19.543
-2.6537 3.2222 19.547
-2.6716 3.2226 19.552
-2.6949 3.2281 19.541
-2.7128 3.2285 19.545
-2.7307 3.2289 19.55
-2.7993 3.2363 19.53
-2.813 3.2407 19.537
-2.8309 3.241 19.541
-2.8541 3.2466 19.53
-2.872 3.2469 19.535
-2.8899 3.2473 19.539
-2.9131 3.2528 19.528
-2.9489 3.2536 19.537
-3.0846 3.2665 19.537
-3.1349 3.2735 19.514
-3.1528 3.2738 19.518
-3.1666 3.2783 19.524
-3.1845 3.2787 19.529
-3.2663 3.2904 19.516
-3.2842 3.2908 19.52
-3.3163 3.2973 19.492
-3.3342 3.2977 19.496
-3.3521 3.2981 19.501
-3.5191 3.3159 19.512
-3.546 3.3173 19.499
-3.5639 3.3177 19.503
-3.5818 3.3181 19.508
-3.6046 3.3235 19.497
-3.6225 3.3239 19.501
-3.6584 3.3247 19.51
-3.6763 3.3251 19.514
-3.6901 3.3296 19.52
-3.7349 3.3314 19.512
-3.8114 3.3381 19.514
-3.8293 3.3385 19.518
-3.8432 3.343 19.524
-3.874 3.3403 19.51
-3.8879 3.3447 19.516
-3.9284 3.3506 19.509
-3.9464 3.351 19.514
-3.9643 3.3514 19.518
-3.9782 3.3559 19.524
-3.9961 3.3563 19.528
-4.1617 3.3666 19.513
-4.1935 3.3715 19.524
-4.2115 3.3719 19.528
-4.234 3.3774 19.517
-4.2699 3.3782 19.525
-4.2879 3.3786 19.529
-4.3018 3.3832 19.536
-4.3283 3.3845 19.523
-4.3463 3.3849 19.527
-4.3642 3.3853 19.531
-4.4849 3.3938 19.524
-4.4989 3.3984 19.53
-4.5349 3.3992 19.538
-4.5572 3.4047 19.528
-4.5711 3.4092 19.534
-4.5974 3.4105 19.521
-4.6071 3.4101 19.542
-4.6334 3.4114 19.529
-4.8039 3.4253 19.536
-4.826 3.4307 19.526
-4.8521 3.432 19.513
-4.8662 3.4366 19.519
-4.8842 3.437 19.523
-4.9643 3.4487 19.51
-5.0004 3.4496 19.518
-5.0224 3.455 19.507
-5.0404 3.4555 19.511
-5.0545 3.46 19.517
-5.2223 3.4752 19.486
-5.2363 3.4798 19.492
-5.2622 3.4811 19.48
-5.2802 3.4815 19.484
-5.2943 3.4861 19.49
-5.392 3.4983 19.48
-5.41 3.4987 19.484
-5.4357 3.5 19.471
-5.4575 3.5053 19.461
-5.6524 3.5296 19.442
-5.6704 3.5301 19.446
-5.7139 3.5318 19.437
-5.7281 3.5364 19.443
-5.8037 3.5432 19.444
-5.8217 3.5437 19.447
-5.8652 3.5454 19.439
-5.8793 3.55 19.444
-5.9443 3.5571 19.425
-5.9585 3.5617 19.431
-6.131 3.5807 19.422
-6.149 3.5812 19.425
-6.1922 3.5829 19.416
-6.325 3.5961 19.413
-6.3393 3.6007 19.419
-6.3753 3.6017 19.426
-6.3966 3.6071 19.416
-6.6508 3.6337 19.39
-6.665 3.6383 19.395
-6.7794 3.6511 19.388
-6.7975 3.6516 19.391
-6.8366 3.6574 19.384
-6.8546 3.658 19.388
-6.8689 3.6626 19.393
8.6608 2.207 19.867
8.6618 2.2045 19.89
8.6627 2.2021 19.914
8.645 2.2022 19.918
8.6273 2.2023 19.923
8.5935 2.2093 19.904
8.5758 2.2094 19.909
8.5219 2.2121 19.899
8.5068 2.2165 19.899
8.4891 2.2166 19.904
8.4715 2.2167 19.908
8.4538 2.2168 19.913
8.4361 2.2169 19.917
8.3136 2.2268 19.898
8.2776 2.2294 19.884
8.2627 2.2338 19.884
8.2451 2.2339 19.889
8.2275 2.234 19.894
8.2098 2.234 19.898
8.1739 2.2366 19.884
8.1407 2.2436 19.866
8.1232 2.2437 19.87
8.1056 2.2438 19.875
8.0908 2.2482 19.876
8.0732 2.2483 19.881
8.0374 2.2508 19.866
8.0198 2.2509 19.871
7.8635 2.2608 19.862
7.8489 2.2652 19.863
7.8313 2.2653 19.868
7.7957 2.2679 19.854
7.7782 2.268 19.858
7.7607 2.2681 19.863
7.7106 2.275 19.85
7.675 2.2776 19.835
7.6575 2.2777 19.84
7.6401 2.2778 19.845
7.6076 2.2846 19.827
7.6081 2.2822 19.852
7.5727 2.2848 19.837
7.4879 2.2919 19.834
7.4526 2.2944 19.819
7.453 2.292 19.843
7.4208 2.2988 19.826
7.4033 2.2989 19.831
7.3712 2.3057 19.814
7.3538 2.3058 19.819
7.3186 2.3083 19.804
7.3011 2.3084 19.809
7.2837 2.3085 19.814
7.2694 2.3129 19.816
7.252 2.313 19.821
7.0629 2.3252 19.799
7.0455 2.3253 19.804
7.0314 2.3296 19.806
6.9998 2.3364 19.789
6.9649 2.3388 19.775
6.9475 2.3389 19.78
6.9301 2.339 19.785
6.9127 2.3391 19.79
6.8986 2.3434 19.792
6.8813 2.3436 19.797
6.8639 2.3436 19.802
6.8151 2.3527 19.766
6.7317 2.3597 19.764
6.7143 2.3598 19.769
6.6969 2.3599 19.774
6.6795 2.36 19.779
6.6622 2.3601 19.784
6.6138 2.3691 19.748
6.6136 2.3668 19.773
6.5791 2.3693 19.758
6.5652 2.3736 19.761
6.5133 2.3762 19.752
6.5131 2.3739 19.776
6.2647 2.3969 19.748
6.2304 2.3994 19.734
6.2131 2.3995 19.739
6.1957 2.3996 19.744
6.1611 2.3998 19.754
6.1437 2.3999 19.759
6.1131 2.4065 19.743
6.0958 2.4066 19.748
5.9829 2.4201 19.731
5.9656 2.4202 19.736
5.9482 2.4203 19.742
5.9309 2.4204 19.747
5.8969 2.4228 19.732
5.8666 2.4294 19.716
5.8493 2.4295 19.721
5.832 2.4296 19.727
5.6859 2.4454 19.696
5.6678 2.4433 19.726
5.6339 2.4457 19.712
5.6204 2.45 19.715
5.5858 2.4502 19.726
5.5685 2.4503 19.731
5.5347 2.4527 19.716
5.5048 2.4592 19.701
5.4875 2.4593 19.706
5.4702 2.4594 19.711
5.4356 2.4597 19.722
5.4221 2.4639 19.726
5.3885 2.4663 19.711
5.3712 2.4664 19.716
5.256 2.4756 19.702
5.2252 2.48 19.711
5.1917 2.4823 19.697
5.1622 2.4887 19.682
5.1449 2.4889 19.687
5.1142 2.4932 19.696
4.9317 2.5049 19.679
4.9183 2.5092 19.683
4.901 2.5093 19.688
4.8664 2.5096 19.699
4.8213 2.5181 19.664
4.8199 2.5161 19.689
4.7867 2.5184 19.674
4.7734 2.5226 19.679
4.7561 2.5228 19.684
4.7388 2.5229 19.689
4.6288 2.5361 19.675
4.5958 2.5384 19.661
4.5941 2.5364 19.686
4.5611 2.5387 19.672
4.5323 2.545 19.657
4.4976 2.5453 19.667
4.3033 2.5611 19.655
4.2901 2.5653 19.66
4.2728 2.5655 19.665
4.2555 2.5656 19.67
4.2269 2.5719 19.655
4.1942 2.5742 19.641
4.1769 2.5743 19.647
4.1595 2.5745 19.652
4.1422 2.5746 19.657
4.1249 2.5748 19.663
4.1117 2.579 19.667
4.0943 2.5792 19.673
4.0617 2.5814 19.659
3.9639 2.5883 19.665
3.9356 2.5946 19.651
3.9182 2.5948 19.656
3.9009 2.5949 19.661
3.8553 2.6014 19.652
3.8379 2.6015 19.657
3.8055 2.6037 19.643
3.7881 2.6039 19.648
3.775 2.6081 19.653
3.5823 2.6238 19.642
3.5649 2.624 19.648
3.5476 2.6241 19.653
3.5022 2.6305 19.644
3.4848 2.6307 19.649
3.4675 2.6309 19.655
3.4396 2.6371 19.64
3.4222 2.6373 19.646
3.3102 2.6462 19.633
3.2928 2.6464 19.639
3.2797 2.6506 19.644
3.2477 2.6527 19.63
3.22 2.6589 19.616
3.2026 2.6591 19.621
3.1852 2.6593 19.626
3.0156 2.6787 19.611
2.9982 2.6789 19.616
2.9808 2.6791 19.622
2.936 2.6854 19.613
2.9185 2.6856 19.618
2.8868 2.6877 19.604
2.8837 2.686 19.629
2.8563 2.6921 19.615
2.8389 2.6923 19.62
2.6972 2.7055 19.619
2.6798 2.7057 19.625
2.6623 2.7059 19.63
2.6308 2.708 19.616
2.6037 2.7141 19.602
2.5863 2.7143 19.607
2.5688 2.7145 19.613
2.418 2.7336 19.593
2.4005 2.7338 19.598
2.383 2.734 19.604
2.3656 2.7342 19.609
2.3387 2.7403 19.595
2.3037 2.7407 19.606
2.2819 2.7369 19.611
2.255 2.7429 19.597
2.2376 2.7432 19.602
2.2245 2.7474 19.608
2.207 2.7476 19.613
2.0791 2.7565 19.607
2.066 2.7608 19.613
2.031 2.7612 19.623
2.0135 2.7614 19.629
1.9825 2.7635 19.615
1.9559 2.7695 19.601
1.9384 2.7697 19.607
1.9208 2.7699 19.612
1.8768 2.7762 19.604
1.8593 2.7764 19.609
1.8417 2.7766 19.614
1.6836 2.79 19.619
1.666 2.7902 19.624
1.6397 2.7962 19.611
1.6046 2.7967 19.622
1.5738 2.7987 19.608
1.5563 2.7989 19.613
1.5432 2.8032 19.619
1.5256 2.8034 19.624
1.508 2.8036 19.629
1.416 2.8121 19.613
1.4029 2.8163 19.619
1.3853 2.8165 19.624
1.3591 2.8225 19.611
1.3371 2.8188 19.615
1.311 2.8247 19.602
1.2934 2.8249 19.608
1.0571 2.845 19.615
1.0312 2.8509 19.602
1.0136 2.8512 19.608
0.99596 2.8514 19.613
0.97013 2.8573 19.6
0.95251 2.8576 19.605
0.87387 2.8643 19.608
0.84366 2.8662 19.594
0.82604 2.8664 19.599
0.81288 2.8707 19.605
0.77761 2.8712 19.616
0.75996 2.8715 19.621
0.72182 2.879 19.589
0.71665 2.8776 19.613
0.68655 2.8795 19.599
0.67338 2.8838 19.605
0.56485 2.8923 19.595
0.55167 2.8966 19.601
0.53401 2.8968 19.606
0.51635 2.8971 19.611
0.48641 2.899 19.597
0.46096 2.9048 19.585
0.44331 2.9051 19.59
0.42565 2.9054 19.595
0.40798 2.9056 19.6
0.38259 2.9115 19.587
0.3771 2.9102 19.611
0.3119 2.9126 19.608
0.28657 2.9184 19.595
0.26889 2.9187 19.6
0.23914 2.9205 19.587
0.22593 2.9248 19.593
0.22029 2.9235 19.617
0.19055 2.9253 19.603
0.14763 2.9314 19.596
0.11797 2.9333 19.582
0.10474 2.9375 19.588
0.087053 2.9378 19.593
0.069356 2.9381 19.599
-0.069403 2.9512 19.599
-0.094453 2.9569 19.587
-0.12988 2.9575 19.597
-0.15933 2.9593 19.583
-0.17259 2.9636 19.59
-0.19031 2.9639 19.595
-0.20804 2.9642 19.599
-0.29335 2.9763 19.585
-0.32881 2.9769 19.595
-0.36522 2.9841 19.564
-0.38294 2.9844 19.569
-0.40066 2.9847 19.574
-0.41396 2.989 19.581
-0.43169 2.9893 19.586
-0.53442 3.0017 19.576
-0.55217 3.002 19.581
-0.58129 3.0038 19.568
-0.5946 3.0081 19.574
-0.62368 3.0098 19.561
-0.637 3.0141 19.567
-0.6725 3.0147 19.577
-0.70152 3.0164 19.564
-0.71486 3.0208 19.57
-0.81045 3.0277 19.578
-0.83937 3.0294 19.564
-0.85714 3.0297 19.569
-0.88161 3.0354 19.558
-0.89937 3.0357 19.563
-0.91714 3.036 19.567
-0.94828 3.0407 19.579
-0.97711 3.0424 19.565
-1.1038 3.054 19.584
-1.1325 3.0556 19.571
-1.1503 3.056 19.576
-1.1681 3.0563 19.581
-1.1859 3.0566 19.585
-1.228 3.0626 19.578
-1.2458 3.0629 19.583
-1.2744 3.0646 19.57
-1.2878 3.0689 19.576
-1.3056 3.0693 19.581
-1.3234 3.0696 19.586
-1.4189 3.0766 19.593
-1.4474 3.0782 19.58
-1.4609 3.0825 19.587
-1.4965 3.0832 19.596
-1.5312 3.0902 19.567
-1.549 3.0905 19.571
-1.5669 3.0908 19.576
-1.5847 3.0912 19.581
-1.5982 3.0955 19.587
-1.7397 3.1045 19.586
-1.7711 3.1092 19.597
-1.7889 3.1095 19.602
-1.8128 3.1151 19.59
-1.8307 3.1155 19.595
-1.8589 3.1171 19.582
-1.8724 3.1215 19.588
-1.9082 3.1221 19.598
-1.9363 3.1237 19.585
-1.9542 3.1241 19.589
-1.9721 3.1244 19.594
-1.9958 3.13 19.582
-2.0137 3.1304 19.587
-2.109 3.1374 19.594
-2.1327 3.143 19.583
-2.1505 3.1433 19.588
-2.1921 3.1493 19.581
-2.3367 3.1614 19.604
-2.3645 3.163 19.591
-2.3881 3.1686 19.579
-2.4017 3.173 19.586
-2.4196 3.1733 19.59
-2.4474 3.1749 19.577
-2.4653 3.1752 19.582
-2.5522 3.1831 19.567
-2.5659 3.1875 19.573
-2.5838 3.1878 19.578
-2.6072 3.1934 19.566
-2.6251 3.1938 19.571
-2.6663 3.1997 19.564
-2.6842 3.2 19.569
-2.8257 3.2182 19.553
-2.8616 3.2189 19.563
-2.889 3.2204 19.549
-2.8932 3.2237 19.573
-2.9206 3.2252 19.56
-2.9385 3.2256 19.565
-2.9617 3.2311 19.554
-3.0386 3.2378 19.556
-3.0565 3.2382 19.561
-3.0745 3.2385 19.565
-3.0924 3.2389 19.57
-3.1155 3.2444 19.558
-3.1427 3.2459 19.546
-3.1565 3.2503 19.552
-3.2793 3.268 19.532
-3.3243 3.2699 19.524
-3.3422 3.2702 19.528
-3.3651 3.2757 19.517
-3.3739 3.2751 19.539
-3.4556 3.2868 19.526
-3.4735 3.2872 19.53
-3.5005 3.2887 19.518
-3.5184 3.2891 19.522
-3.5363 3.2895 19.526
-3.5591 3.2949 19.515
-3.595 3.2957 19.524
-3.613 3.2961 19.528
-3.6309 3.2965 19.533
-3.8159 3.3148 19.547
-3.8426 3.3162 19.535
-3.8606 3.3166 19.539
-3.8833 3.322 19.528
-3.9012 3.3224 19.532
-3.9371 3.3233 19.541
-3.9597 3.3287 19.53
-3.9777 3.3291 19.534
-4.0721 3.3363 19.54
-4.0988 3.3376 19.527
-4.1167 3.338 19.532
-4.1347 3.3385 19.536
-4.1486 3.343 19.542
-4.1666 3.3434 19.546
-4.1846 3.3438 19.55
-4.2026 3.3442 19.555
-4.2206 3.3446 19.559
-4.243 3.3501 19.548
-4.279 3.3509 19.556
-4.297 3.3514 19.561
-4.3195 3.3568 19.55
-4.4902 3.3707 19.557
-4.5126 3.3761 19.546
-4.5486 3.377 19.555
-4.5626 3.3815 19.561
-4.5846 3.3779 19.563
-4.5986 3.3824 19.569
-4.6249 3.3837 19.556
-4.7275 3.3918 19.545
-4.7415 3.3964 19.551
-4.7595 3.3968 19.555
-4.7775 3.3972 19.559
-4.7997 3.4027 19.548
-4.8177 3.4031 19.552
-4.8357 3.4036 19.556
-5.0223 3.4284 19.517
-5.0323 3.428 19.538
-5.0544 3.4334 19.527
-5.0724 3.4338 19.531
-5.0904 3.4343 19.535
-5.1564 3.4414 19.515
-5.1705 3.446 19.521
-5.2065 3.4469 19.529
-5.2285 3.4523 19.519
-5.2543 3.4536 19.506
-5.4679 3.4784 19.491
-5.482 3.483 19.497
-5.5039 3.4794 19.498
-5.6015 3.4916 19.489
-5.6157 3.4961 19.495
-5.6337 3.4966 19.498
-5.663 3.5028 19.472
-5.8325 3.5169 19.477
-5.8757 3.5276 19.456
-5.8937 3.5281 19.46
-5.9297 3.5291 19.467
-6.0089 3.5408 19.453
-6.0269 3.5413 19.457
-6.0703 3.543 19.448
-6.0772 3.5469 19.47
-6.124 3.5535 19.447
-6.142 3.554 19.451
-6.426 3.5809 19.448
-6.555 3.5983 19.447
-6.6193 3.6054 19.427
-6.8694 3.6362 19.403
-6.8911 3.6326 19.404
-6.9055 3.6373 19.409
-6.995 3.6489 19.414
-7.0197 3.6501 19.402
-7.0882 3.6564 19.417
8.6579 2.1864 19.883
8.6402 2.1865 19.887
8.5004 2.194 19.895
8.4828 2.1941 19.9
8.4677 2.1986 19.901
8.45 2.1987 19.905
8.4324 2.1988 19.91
8.4147 2.1989 19.914
8.3786 2.2015 19.9
8.3452 2.2085 19.881
8.3099 2.2086 19.89
8.2739 2.2112 19.876
8.2563 2.2113 19.88
8.2414 2.2158 19.881
8.2238 2.2159 19.886
8.1878 2.2184 19.871
8.102 2.2256 19.867
8.0844 2.2257 19.872
8.0485 2.2283 19.857
8.0493 2.2259 19.881
8.0163 2.2328 19.863
7.9987 2.2329 19.868
7.9812 2.233 19.873
7.9279 2.2357 19.863
7.9103 2.2358 19.867
7.8928 2.2358 19.872
7.86 2.2428 19.854
7.8425 2.2428 19.859
7.8249 2.2429 19.864
7.8074 2.243 19.868
7.7747 2.2499 19.851
7.7572 2.25 19.855
7.7397 2.2501 19.86
7.6367 2.2597 19.837
7.6192 2.2597 19.842
7.6017 2.2598 19.847
7.5693 2.2667 19.829
7.5697 2.2643 19.854
7.5343 2.2669 19.839
7.5169 2.267 19.844
7.4994 2.267 19.849
7.4671 2.2739 19.831
7.4497 2.274 19.836
7.4144 2.2765 19.822
7.3969 2.2766 19.826
7.3795 2.2767 19.831
7.3299 2.2836 19.819
7.3125 2.2837 19.824
7.1933 2.2909 19.831
7.1582 2.2934 19.816
7.144 2.2978 19.819
7.1266 2.2979 19.823
7.1092 2.298 19.828
7.0741 2.3005 19.814
7.0424 2.3072 19.797
7.025 2.3073 19.802
7.0076 2.3074 19.807
6.9552 2.31 19.797
6.9412 2.3144 19.799
6.8087 2.3282 19.786
6.7913 2.3283 19.791
6.7426 2.3351 19.779
6.7079 2.3376 19.764
6.6905 2.3377 19.769
6.6732 2.3377 19.774
6.6558 2.3378 19.779
6.6384 2.3379 19.785
6.6071 2.3423 19.792
6.5725 2.3448 19.778
6.5552 2.3449 19.783
6.5032 2.3475 19.773
6.4237 2.3586 19.77
6.389 2.3588 19.78
6.3717 2.3589 19.785
6.3237 2.3679 19.749
6.3064 2.368 19.754
6.2891 2.3681 19.759
6.2717 2.3682 19.765
6.2237 2.375 19.753
6.2063 2.3751 19.759
6.189 2.3752 19.764
6.0065 2.3891 19.767
5.9592 2.398 19.731
5.9419 2.3981 19.736
5.9246 2.3982 19.742
5.9073 2.3983 19.747
5.8596 2.405 19.736
5.7262 2.4144 19.726
5.7089 2.4145 19.731
5.6953 2.4188 19.735
5.6607 2.419 19.745
5.6306 2.4256 19.73
5.5968 2.428 19.715
5.5795 2.4281 19.72
5.5622 2.4282 19.726
5.5314 2.4325 19.735
5.3342 2.4486 19.72
5.2832 2.4511 19.711
5.2659 2.4512 19.716
5.2525 2.4555 19.721
5.219 2.4579 19.706
5.2017 2.458 19.711
5.1844 2.4581 19.717
5.1375 2.4647 19.706
5.1202 2.4648 19.712
5.1029 2.4649 19.717
5.0855 2.4651 19.722
4.992 2.4782 19.702
4.9747 2.4783 19.707
4.9281 2.4849 19.697
4.8948 2.4872 19.683
4.8935 2.4852 19.708
4.8602 2.4875 19.693
4.8469 2.4917 19.698
4.6475 2.5036 19.686
4.6343 2.5078 19.69
4.617 2.5079 19.695
4.5996 2.5081 19.701
4.5823 2.5082 19.706
4.5533 2.5146 19.691
4.536 2.5147 19.696
4.5071 2.5211 19.681
4.4263 2.5279 19.682
4.3934 2.5302 19.668
4.3761 2.5303 19.673
4.3587 2.5305 19.679
4.3455 2.5347 19.683
4.3282 2.5348 19.689
4.3108 2.535 19.694
4.2935 2.5351 19.699
4.2494 2.5436 19.665
4.2147 2.5439 19.675
4.2015 2.5481 19.68
4.021 2.5597 19.664
4.0078 2.5639 19.669
3.9904 2.5641 19.674
3.9731 2.5642 19.679
3.9122 2.5728 19.65
3.8949 2.5729 19.656
3.8926 2.571 19.681
3.8601 2.5732 19.666
3.8428 2.5734 19.672
3.8254 2.5736 19.677
3.8122 2.5778 19.682
3.7948 2.5779 19.687
3.6995 2.5868 19.669
3.6821 2.5869 19.675
3.654 2.5932 19.66
3.6366 2.5934 19.666
3.6193 2.5935 19.671
3.5739 2.6 19.662
3.5565 2.6001 19.667
3.5433 2.6044 19.672
3.5068 2.6025 19.658
3.4937 2.6067 19.663
3.3336 2.6202 19.667
3.3162 2.6204 19.672
3.2884 2.6266 19.658
3.2564 2.6288 19.644
3.207 2.6311 19.635
3.1939 2.6353 19.64
3.1765 2.6355 19.646
3.1591 2.6357 19.651
3.0792 2.6425 19.653
3.0517 2.6486 19.639
2.9924 2.6569 19.611
2.9893 2.6552 19.635
2.9401 2.6575 19.627
2.7983 2.6707 19.625
2.7852 2.675 19.631
2.7361 2.6773 19.622
2.7187 2.6775 19.628
2.6915 2.6836 19.614
2.6566 2.684 19.624
2.6435 2.6882 19.63
2.6217 2.6844 19.635
2.6086 2.6886 19.64
2.5771 2.6907 19.626
2.5596 2.6909 19.632
2.4356 2.7039 19.626
2.4087 2.71 19.612
2.3599 2.7123 19.603
2.3518 2.7066 19.627
2.3293 2.7167 19.614
2.3075 2.7129 19.619
2.2944 2.7171 19.625
2.2769 2.7174 19.63
2.1358 2.7306 19.63
2.1007 2.731 19.64
2.0696 2.733 19.626
2.0657 2.7314 19.651
2.0346 2.7335 19.637
2.017 2.7337 19.642
1.9904 2.7397 19.628
1.9463 2.746 19.62
1.9243 2.7422 19.625
1.9112 2.7464 19.631
1.8937 2.7467 19.636
1.7484 2.7559 19.635
1.7353 2.7601 19.641
1.7178 2.7603 19.646
1.6738 2.7666 19.638
1.643 2.7686 19.624
1.6254 2.7688 19.629
1.6078 2.769 19.634
1.5903 2.7693 19.64
1.5771 2.7735 19.646
1.406 2.7887 19.631
1.3622 2.7949 19.624
1.3446 2.7951 19.629
1.327 2.7954 19.634
1.3094 2.7956 19.639
1.2963 2.7999 19.645
1.2657 2.8018 19.631
1.2481 2.8021 19.637
1.1388 2.8107 19.625
1.1385 2.8133 19.65
1.108 2.8152 19.637
1.0904 2.8155 19.642
1.0468 2.8217 19.634
1.0209 2.8276 19.621
1.0033 2.8279 19.626
0.98568 2.8281 19.631
0.82011 2.8472 19.619
0.78992 2.8491 19.605
0.77229 2.8493 19.61
0.75465 2.8496 19.615
0.74148 2.8538 19.621
0.70617 2.8544 19.632
0.61514 2.8627 19.615
0.60195 2.867 19.622
0.56662 2.8675 19.632
0.52876 2.875 19.6
0.5111 2.8752 19.605
0.49344 2.8755 19.61
0.47577 2.8758 19.616
0.45809 2.876 19.621
0.2758 2.8953 19.614
0.25811 2.8955 19.619
0.24041 2.8958 19.624
0.21511 2.9017 19.611
0.18538 2.9035 19.598
0.16769 2.9038 19.603
0.14999 2.904 19.608
0.13676 2.9083 19.614
0.040716 2.9153 19.622
0.011101 2.9171 19.608
-0.006614 2.9174 19.613
-0.019872 2.9217 19.619
-0.055326 2.9222 19.63
-0.084881 2.924 19.616
-0.10994 2.9299 19.604
-0.12766 2.9302 19.608
-0.14539 2.9304 19.613
-0.15867 2.9347 19.62
-0.29734 2.9478 19.62
-0.33385 2.9551 19.59
-0.35158 2.9554 19.595
-0.36932 2.9557 19.599
-0.40037 2.9603 19.611
-0.41812 2.9606 19.616
-0.50768 2.9687 19.6
-0.53876 2.9733 19.611
-0.57489 2.9805 19.581
-0.59264 2.9808 19.586
-0.6104 2.9811 19.591
-0.62816 2.9814 19.596
-0.64149 2.9857 19.602
-0.73072 2.9938 19.587
-0.76184 2.9984 19.598
-0.79083 3.0002 19.584
-0.8086 3.0005 19.589
-0.83313 3.0062 19.577
-0.8509 3.0065 19.582
-0.88204 3.0111 19.594
-0.91094 3.0128 19.58
-0.91762 3.0118 19.603
-0.9465 3.0135 19.59
-0.97094 3.0192 19.578
-1.0555 3.0248 19.604
-1.0733 3.0251 19.609
-1.1086 3.0322 19.579
-1.1264 3.0325 19.584
-1.162 3.0331 19.593
-1.1863 3.0388 19.582
-1.1933 3.0378 19.605
-1.2155 3.0341 19.608
-1.2441 3.0357 19.595
-1.2576 3.0401 19.601
-1.2754 3.0404 19.606
-1.2932 3.0407 19.611
-1.413 3.0534 19.606
-1.4308 3.0537 19.611
-1.4486 3.0541 19.616
-1.4728 3.0597 19.604
-1.4906 3.0601 19.609
-1.5191 3.0617 19.596
-1.537 3.062 19.6
-1.5504 3.0664 19.607
-1.5683 3.0667 19.612
-1.5861 3.0671 19.616
-1.6921 3.0754 19.606
-1.71 3.0757 19.61
-1.7235 3.0801 19.617
-1.7414 3.0804 19.622
-1.7592 3.0807 19.626
-1.7936 3.0877 19.597
-1.8115 3.088 19.602
-1.8293 3.0884 19.606
-1.8429 3.0927 19.613
-1.8607 3.0931 19.617
-1.9843 3.1017 19.611
-2.0439 3.108 19.609
-2.0516 3.1071 19.632
-2.0855 3.114 19.602
-2.1034 3.1143 19.607
-2.1213 3.1147 19.612
-2.1392 3.115 19.616
-2.1528 3.1194 19.623
-2.1808 3.121 19.61
-2.1987 3.1214 19.614
-2.2224 3.127 19.603
-2.2582 3.1277 19.612
-2.2718 3.1321 19.619
-2.3255 3.1331 19.632
-2.3591 3.14 19.603
-2.3949 3.1407 19.612
-2.5414 3.1549 19.595
-2.555 3.1593 19.601
-2.6062 3.1664 19.577
-2.6143 3.1656 19.599
-2.628 3.17 19.606
-2.6556 3.1715 19.593
-2.6736 3.1719 19.597
-2.774 3.1841 19.588
-2.7919 3.1845 19.593
-2.8099 3.1849 19.597
-2.8332 3.1904 19.586
-2.8511 3.1908 19.591
-2.8744 3.1964 19.579
-2.8923 3.1968 19.584
-2.9281 3.1975 19.593
-3.0642 3.2105 19.593
-3.0968 3.2171 19.564
-3.1147 3.2175 19.569
-3.1284 3.222 19.575
-3.1464 3.2223 19.58
-3.2284 3.2342 19.567
-3.2786 3.2412 19.543
-3.2965 3.2415 19.547
-3.3144 3.2419 19.552
-3.3323 3.2423 19.556
-3.4908 3.2608 19.545
-3.5046 3.2652 19.551
-3.5316 3.2667 19.538
-3.5495 3.2671 19.543
-3.5633 3.2715 19.549
-3.6034 3.2683 19.556
-3.6172 3.2727 19.562
-3.6351 3.2731 19.566
-3.7387 3.2812 19.556
-3.7747 3.282 19.564
-3.8153 3.2879 19.558
-3.8245 3.2873 19.579
-3.856 3.2938 19.551
-3.874 3.2942 19.555
-3.8919 3.2946 19.559
-3.9099 3.295 19.564
-3.9418 3.2999 19.574
-3.9598 3.3003 19.578
-4.077 3.3129 19.574
-4.0991 3.3093 19.576
-4.1216 3.3148 19.565
-4.1396 3.3152 19.569
-4.1576 3.3156 19.573
-4.1756 3.316 19.578
-4.2161 3.3219 19.571
-4.2341 3.3223 19.575
-4.2521 3.3227 19.579
-4.2701 3.3232 19.583
-4.2926 3.3286 19.573
-4.3021 3.3281 19.594
-4.4231 3.3366 19.587
-4.4412 3.3371 19.591
-4.4635 3.3425 19.58
-4.4816 3.343 19.584
-4.4996 3.3434 19.588
-4.522 3.3489 19.577
-4.5663 3.3506 19.569
-4.572 3.3542 19.592
-4.7191 3.3642 19.571
-4.7331 3.3687 19.578
-4.7511 3.3691 19.581
-4.7733 3.3746 19.571
-4.7914 3.375 19.575
-4.8094 3.3755 19.579
-4.8274 3.3759 19.583
-4.8455 3.3763 19.587
-4.9259 3.3881 19.573
-4.948 3.3936 19.563
-4.9661 3.394 19.567
-4.9882 3.3995 19.556
-5.0203 3.4045 19.566
-5.0383 3.4049 19.57
-5.1625 3.4184 19.548
-5.1806 3.4189 19.552
-5.2284 3.4257 19.528
-5.2465 3.4261 19.532
-5.2606 3.4307 19.538
-5.2786 3.4311 19.542
-5.3005 3.4365 19.532
-5.3765 3.4433 19.532
-5.4126 3.4443 19.54
-5.4383 3.4546 19.515
-5.4602 3.451 19.517
-5.4744 3.4556 19.523
-5.6338 3.47 19.508
-5.648 3.4746 19.514
-5.6736 3.4759 19.501
-5.6916 3.4763 19.505
-5.7058 3.4809 19.511
-5.8033 3.4931 19.501
-5.8213 3.4936 19.505
-5.8429 3.499 19.494
-5.8865 3.5008 19.485
-6.0774 3.5203 19.48
-6.0882 3.5201 19.499
-6.1169 3.5262 19.473
-6.1277 3.5259 19.493
-6.153 3.5272 19.48
-6.2681 3.5399 19.473
-6.2862 3.5404 19.477
-6.3076 3.5458 19.466
-6.3437 3.5468 19.473
-6.3651 3.5522 19.463
-6.4012 3.5532 19.47
-6.4192 3.5537 19.474
-6.6127 3.5782 19.453
-6.6308 3.5787 19.456
-6.6738 3.5805 19.447
-6.6913 3.5899 19.439
-6.8027 3.5979 19.445
-7.1296 3.6302 19.467
8.6504 2.1664 19.855
8.654 2.1683 19.875
8.6525 2.1614 19.902
8.6373 2.1659 19.903
8.6196 2.166 19.907
8.6019 2.1661 19.912
8.5682 2.1731 19.893
8.5143 2.1759 19.883
8.4966 2.1759 19.887
8.479 2.176 19.892
8.4613 2.1761 19.896
8.4463 2.1806 19.897
8.4286 2.1806 19.902
8.411 2.1807 19.906
8.3062 2.1905 19.883
8.2886 2.1906 19.887
8.2526 2.1932 19.873
8.235 2.1933 19.877
8.2201 2.1978 19.878
8.2025 2.1978 19.883
8.149 2.2005 19.873
8.1159 2.2075 19.855
8.0983 2.2076 19.86
8.0808 2.2076 19.864
8.0632 2.2077 19.869
8.0274 2.2103 19.854
8.0281 2.2079 19.878
7.9951 2.2148 19.86
7.9776 2.2149 19.865
7.9243 2.2176 19.855
7.839 2.2247 19.851
7.8214 2.2248 19.856
7.8039 2.2249 19.861
7.7864 2.225 19.866
7.7508 2.2276 19.851
7.7363 2.232 19.853
7.7188 2.2321 19.857
7.7013 2.2321 19.862
7.6657 2.2347 19.848
7.6482 2.2348 19.852
7.6158 2.2417 19.835
7.5983 2.2418 19.84
7.5454 2.2444 19.83
7.5279 2.2445 19.834
7.5104 2.2446 19.839
7.4961 2.249 19.841
7.3587 2.2587 19.829
7.3413 2.2588 19.834
7.3092 2.2656 19.816
7.2918 2.2657 19.821
7.2743 2.2658 19.826
7.2569 2.2659 19.831
7.2395 2.2659 19.836
7.1724 2.2753 19.804
7.155 2.2754 19.809
7.1376 2.2755 19.814
7.1202 2.2755 19.819
7.106 2.2799 19.821
7.0886 2.28 19.826
7.0536 2.2825 19.811
7.0219 2.2893 19.794
6.9347 2.2921 19.795
6.9173 2.2922 19.8
6.9033 2.2965 19.802
6.8859 2.2966 19.807
6.8685 2.2967 19.812
6.8163 2.2993 19.803
6.7989 2.2994 19.808
6.7675 2.3061 19.791
6.7501 2.3062 19.796
6.7328 2.3063 19.801
6.7188 2.3106 19.804
6.6667 2.3132 19.794
6.5349 2.327 19.781
6.5176 2.3271 19.786
6.5002 2.3272 19.791
6.4657 2.3296 19.776
6.4347 2.3363 19.76
6.4173 2.3364 19.765
6.4 2.3365 19.77
6.3826 2.3366 19.775
6.3653 2.3367 19.78
6.3515 2.341 19.784
6.3135 2.3393 19.771
6.2997 2.3436 19.774
6.2824 2.3437 19.779
6.1689 2.3573 19.762
6.1516 2.3573 19.767
6.1342 2.3574 19.772
6.0827 2.36 19.763
6.0521 2.3666 19.747
6.048 2.3602 19.773
6.0175 2.3668 19.757
6.0001 2.3669 19.762
5.9828 2.367 19.767
5.9524 2.3736 19.751
5.935 2.3737 19.756
5.7878 2.3874 19.75
5.7705 2.3876 19.755
5.7531 2.3877 19.76
5.7358 2.3878 19.765
5.689 2.3967 19.73
5.6717 2.3968 19.735
5.6544 2.3969 19.74
5.6371 2.397 19.745
5.6032 2.3994 19.731
5.5897 2.4036 19.735
5.5724 2.4038 19.74
5.5551 2.4039 19.745
5.4394 2.4131 19.731
5.4221 2.4133 19.736
5.4086 2.4175 19.74
5.374 2.4177 19.75
5.3403 2.4201 19.736
5.323 2.4202 19.741
5.2932 2.4268 19.726
5.2759 2.4269 19.731
5.2423 2.4293 19.716
5.2413 2.4271 19.741
5.2116 2.4336 19.726
5.062 2.4431 19.722
5.0486 2.4473 19.726
5.0019 2.4539 19.716
4.9806 2.4499 19.723
4.9512 2.4564 19.707
4.9339 2.4565 19.712
4.9166 2.4566 19.718
4.8992 2.4568 19.723
4.8859 2.461 19.727
4.8526 2.4634 19.713
4.8512 2.4613 19.738
4.8061 2.4699 19.703
4.7888 2.4701 19.708
4.6439 2.4836 19.704
4.6382 2.4774 19.73
4.6209 2.4775 19.735
4.5761 2.4862 19.701
4.5588 2.4863 19.706
4.5455 2.4905 19.71
4.4184 2.5039 19.702
4.3855 2.5062 19.687
4.3682 2.5063 19.693
4.3508 2.5064 19.698
4.3335 2.5066 19.703
4.2874 2.5131 19.694
4.27 2.5132 19.699
4.2568 2.5175 19.704
4.2241 2.5198 19.69
4.1893 2.52 19.7
4.076 2.5291 19.687
4.0628 2.5333 19.692
4.0454 2.5335 19.697
3.9954 2.5359 19.688
3.967 2.5422 19.674
3.9497 2.5424 19.679
3.9365 2.5466 19.684
3.9149 2.5427 19.69
3.8824 2.545 19.675
3.8345 2.5495 19.691
3.7085 2.5627 19.683
3.6414 2.5653 19.68
3.6133 2.5715 19.665
3.6108 2.5697 19.69
3.5785 2.5719 19.676
3.5611 2.572 19.681
3.5437 2.5722 19.687
3.4356 2.5852 19.674
3.4225 2.5895 19.679
3.4051 2.5896 19.684
3.3876 2.5898 19.69
3.3555 2.592 19.675
3.3277 2.5982 19.661
3.2928 2.5986 19.672
3.2754 2.5988 19.677
3.2477 2.605 19.663
3.2303 2.6052 19.668
3.0878 2.6185 19.667
3.0603 2.6247 19.653
3.0428 2.6249 19.658
3.011 2.6271 19.644
2.9935 2.6272 19.649
2.9804 2.6314 19.655
2.8416 2.6465 19.629
2.8384 2.6447 19.653
2.8209 2.6449 19.659
2.7893 2.6471 19.645
2.7718 2.6473 19.65
2.7445 2.6534 19.636
2.7271 2.6536 19.641
2.714 2.6578 19.647
2.5679 2.6671 19.645
2.5504 2.6673 19.651
2.5234 2.6734 19.637
2.4884 2.6738 19.648
2.4534 2.6742 19.658
2.4125 2.6822 19.625
2.395 2.6824 19.631
2.3775 2.6826 19.636
2.3644 2.6868 19.642
2.3469 2.687 19.647
2.3119 2.6875 19.657
2.2806 2.6895 19.643
2.1837 2.6965 19.651
2.1662 2.6967 19.656
2.1531 2.7009 19.662
2.1219 2.703 19.648
2.1044 2.7032 19.653
2.0776 2.7093 19.64
2.0601 2.7095 19.645
2.0114 2.7118 19.636
2.0119 2.7142 19.661
1.9764 2.7122 19.647
1.8179 2.7256 19.651
1.8048 2.7299 19.657
1.7828 2.7261 19.662
1.7521 2.7305 19.673
1.7122 2.7384 19.64
1.708 2.7368 19.665
1.6771 2.7388 19.651
1.6595 2.7391 19.656
1.6464 2.7433 19.662
1.6068 2.7398 19.672
1.4705 2.757 19.672
1.4529 2.7572 19.677
1.4136 2.765 19.645
1.396 2.7652 19.65
1.3784 2.7655 19.655
1.3477 2.7675 19.642
1.1767 2.7851 19.653
1.1591 2.7854 19.658
1.1154 2.7916 19.65
1.0978 2.7919 19.655
1.0802 2.7921 19.66
1.0497 2.794 19.646
1.0366 2.7983 19.653
1.0189 2.7986 19.658
0.91423 2.8112 19.647
0.88841 2.8172 19.635
0.87077 2.8174 19.64
0.84052 2.8194 19.626
0.82287 2.8196 19.631
0.8097 2.8239 19.637
0.77439 2.8244 19.648
0.617 2.8378 19.653
0.57902 2.8453 19.621
0.56135 2.8456 19.626
0.54368 2.8458 19.631
0.526 2.8461 19.637
0.49511 2.8506 19.648
0.46512 2.8525 19.634
0.35567 2.8638 19.648
0.32578 2.8657 19.634
0.30808 2.8659 19.639
0.29037 2.8662 19.644
0.26502 2.8721 19.632
0.23522 2.8739 19.618
0.2296 2.8726 19.642
0.19981 2.8745 19.628
0.1821 2.8748 19.633
0.16886 2.879 19.64
0.077175 2.89 19.649
0.04303 2.8878 19.634
0.02977 2.8921 19.64
0.012037 2.8924 19.645
-0.005702 2.8927 19.65
-0.023446 2.893 19.655
-0.060445 2.9004 19.624
-0.078176 2.9007 19.629
-0.095913 2.9009 19.634
-0.19923 2.9134 19.624
-0.21698 2.9137 19.629
-0.23473 2.914 19.634
-0.26579 2.9186 19.646
-0.29521 2.9204 19.632
-0.32014 2.9262 19.62
-0.33789 2.9265 19.625
-0.38054 2.9326 19.618
-0.38673 2.9314 19.641
-0.45866 2.9393 19.62
-0.48976 2.9439 19.632
-0.519 2.9457 19.618
-0.52531 2.9445 19.642
-0.56152 2.9517 19.611
-0.57929 2.952 19.616
-0.6104 2.9566 19.627
-0.62819 2.9569 19.632
-0.71755 2.9651 19.616
-0.75996 2.9712 19.609
-0.77774 2.9714 19.614
-0.80233 2.9772 19.602
-0.82011 2.9775 19.607
-0.8379 2.9778 19.612
-0.85127 2.9821 19.619
-0.88022 2.9839 19.605
-1.0782 3.0032 19.604
-1.096 3.0036 19.608
-1.1138 3.0039 19.613
-1.1316 3.0042 19.618
-1.1494 3.0045 19.623
-1.1782 3.0062 19.61
-1.1916 3.0105 19.616
-1.2094 3.0109 19.621
-1.2272 3.0112 19.626
-1.2515 3.0169 19.614
-1.365 3.0242 19.626
-1.3828 3.0245 19.631
-1.407 3.0302 19.619
-1.4427 3.0309 19.629
-1.4713 3.0325 19.615
-1.4847 3.0369 19.622
-1.507 3.0332 19.625
-1.5204 3.0375 19.631
-1.6758 3.0509 19.637
-1.7282 3.0582 19.612
-1.7356 3.0572 19.634
-1.7578 3.0535 19.637
-1.7818 3.0592 19.626
-1.7953 3.0636 19.632
-1.8176 3.0599 19.635
-1.849 3.0646 19.646
-1.9369 3.0726 19.631
-1.9505 3.077 19.637
-1.9787 3.0786 19.624
-1.9966 3.0789 19.629
-2.0145 3.0793 19.633
-2.0383 3.0849 19.622
-2.0562 3.0853 19.627
-2.0741 3.0856 19.631
-2.092 3.0859 19.636
-2.1099 3.0863 19.64
-2.2649 3.0997 19.645
-2.2885 3.1053 19.634
-2.3301 3.1113 19.627
-2.348 3.1116 19.632
-2.3659 3.112 19.636
-2.3839 3.1123 19.641
-2.3975 3.1168 19.647
-2.4254 3.1183 19.634
-2.4669 3.1243 19.627
-2.4947 3.1259 19.614
-2.5497 3.1363 19.614
-2.5676 3.1366 19.618
-2.5813 3.141 19.625
-2.6133 3.1385 19.61
-2.627 3.1429 19.616
-2.7634 3.1559 19.616
-2.7814 3.1563 19.621
-2.7993 3.1567 19.625
-2.8226 3.1623 19.614
-2.8502 3.1638 19.601
-2.8681 3.1642 19.606
-2.8818 3.1686 19.612
-2.8998 3.169 19.616
-3.0043 3.1772 19.606
-3.0181 3.1816 19.612
-3.036 3.182 19.616
-3.0592 3.1875 19.605
-3.0771 3.1879 19.61
-3.1045 3.1894 19.597
-3.1225 3.1898 19.601
-3.2542 3.2069 19.603
-3.2865 3.2135 19.575
-3.3003 3.218 19.581
-3.4043 3.2262 19.57
-3.418 3.2306 19.577
-3.436 3.231 19.581
-3.4589 3.2365 19.57
-3.486 3.238 19.557
-3.5039 3.2384 19.562
-3.5357 3.2432 19.572
-3.5537 3.2436 19.577
-3.5716 3.244 19.581
-3.5896 3.2444 19.585
-3.6076 3.2448 19.59
-3.7611 3.2582 19.594
-3.7838 3.2637 19.583
-3.8107 3.2652 19.57
-3.8287 3.2656 19.574
-3.8467 3.266 19.578
-3.8826 3.2668 19.587
-3.9053 3.2723 19.576
-3.9145 3.2716 19.597
-4.0318 3.2843 19.593
-4.0498 3.2847 19.597
-4.0806 3.282 19.582
-4.0945 3.2865 19.588
-4.1125 3.2869 19.592
-4.1306 3.2873 19.596
-4.1531 3.2928 19.586
-4.1711 3.2932 19.59
-4.1891 3.2937 19.594
-4.2252 3.2945 19.602
-4.4464 3.3138 19.624
-4.4729 3.3152 19.611
-4.4953 3.3207 19.6
-4.5133 3.3211 19.604
-4.5314 3.3215 19.608
-4.5578 3.3229 19.595
-4.5634 3.3264 19.619
-4.5898 3.3278 19.606
-4.6482 3.3342 19.603
-4.6663 3.3346 19.607
-4.6803 3.3391 19.613
-4.6983 3.3396 19.617
-4.7164 3.34 19.621
-4.7469 3.3464 19.594
-4.7649 3.3469 19.598
-4.783 3.3473 19.602
-4.8011 3.3477 19.605
-4.8413 3.3536 19.599
-4.9579 3.3663 19.593
-4.9759 3.3668 19.597
-4.9981 3.3722 19.587
-5.0342 3.3731 19.594
-5.0522 3.3736 19.598
-5.0783 3.384 19.573
-5.1545 3.3908 19.574
-5.1726 3.3913 19.578
-5.1946 3.3967 19.567
-5.2346 3.4026 19.561
-5.2527 3.4031 19.565
-5.2707 3.4035 19.568
-5.3907 3.4212 19.548
-5.4306 3.4271 19.541
-5.4486 3.4276 19.545
-5.4667 3.428 19.549
-5.4886 3.4335 19.539
-5.5066 3.4339 19.542
-5.5645 3.4403 19.539
-5.5826 3.4407 19.543
-5.6224 3.4466 19.536
-5.6405 3.4471 19.54
-5.6661 3.4484 19.527
-5.8792 3.4734 19.511
-5.8934 3.478 19.517
-5.9115 3.4785 19.521
-6.0127 3.4866 19.509
-6.0269 3.4912 19.514
-6.045 3.4917 19.518
-6.0811 3.4927 19.525
-6.1026 3.4981 19.515
-6.3188 3.519 19.495
-6.3368 3.5195 19.499
-6.3549 3.52 19.503
-6.3763 3.5254 19.492
-6.3944 3.5259 19.495
-6.4124 3.5264 19.499
-6.4305 3.5269 19.503
-6.5056 3.5428 19.491
-6.5455 3.5397 19.495
-6.5598 3.5443 19.501
-6.5849 3.5456 19.488
-6.6173 3.5507 19.497
-7.0645 3.6023 19.448
-7.094 3.6027 19.47
-7.1121 3.6032 19.474
8.6678 2.1502 19.862
8.6501 2.1502 19.867
8.6511 2.1477 19.89
8.6334 2.1478 19.895
8.6158 2.1479 19.899
8.529 2.1552 19.894
8.4928 2.1578 19.88
8.4752 2.1579 19.884
8.4575 2.158 19.889
8.4425 2.1625 19.89
8.4249 2.1625 19.894
8.4073 2.1626 19.899
8.3896 2.1627 19.903
8.3535 2.1653 19.889
8.3201 2.1723 19.87
8.3025 2.1724 19.875
8.2849 2.1725 19.88
8.2489 2.1751 19.865
8.2313 2.1752 19.869
8.2165 2.1797 19.871
8.1989 2.1797 19.875
8.163 2.1824 19.861
8.0392 2.1854 19.869
8.0245 2.1898 19.871
7.9887 2.1924 19.856
7.9741 2.1968 19.857
7.939 2.197 19.867
7.9215 2.1971 19.872
7.8857 2.1997 19.857
7.8682 2.1997 19.862
7.8355 2.2067 19.844
7.818 2.2068 19.849
7.783 2.2069 19.858
7.7473 2.2095 19.843
7.7298 2.2096 19.848
7.7123 2.2097 19.853
7.6978 2.2141 19.855
7.6804 2.2141 19.86
7.56 2.2239 19.842
7.5245 2.2264 19.827
7.5102 2.2308 19.829
7.4927 2.2309 19.834
7.4753 2.231 19.839
7.4578 2.2311 19.844
7.4404 2.2311 19.848
7.405 2.2337 19.834
7.3729 2.2406 19.816
7.3554 2.2406 19.821
7.338 2.2407 19.826
7.3206 2.2408 19.831
7.2885 2.2476 19.814
7.2679 2.2435 19.821
7.2537 2.2478 19.823
7.2363 2.2479 19.828
7.0471 2.2602 19.807
7.033 2.2646 19.809
7.0156 2.2646 19.814
6.9982 2.2647 19.819
6.9808 2.2648 19.824
6.9492 2.2716 19.807
6.9143 2.2741 19.792
6.8969 2.2742 19.797
6.8795 2.2743 19.802
6.8621 2.2744 19.807
6.8133 2.2812 19.796
6.7959 2.2813 19.8
6.7785 2.2814 19.805
6.6776 2.2885 19.809
6.6464 2.2952 19.792
6.629 2.2953 19.797
6.6117 2.2954 19.802
6.5943 2.2955 19.807
6.5596 2.298 19.793
6.5285 2.3047 19.776
6.5112 2.3048 19.781
6.4938 2.3049 19.786
6.4454 2.3117 19.775
6.4281 2.3118 19.78
6.4107 2.3119 19.785
6.3934 2.312 19.79
6.2623 2.3257 19.777
6.2449 2.3258 19.782
6.2276 2.3259 19.788
6.1932 2.3284 19.773
6.1795 2.3327 19.776
6.1452 2.3352 19.762
6.1279 2.3352 19.767
6.0932 2.3354 19.777
6.0759 2.3355 19.782
6.0622 2.3398 19.786
6.028 2.3423 19.771
6.0106 2.3424 19.776
5.9933 2.3425 19.782
5.8978 2.3559 19.76
5.8804 2.356 19.765
5.8464 2.3585 19.75
5.829 2.3586 19.756
5.8117 2.3587 19.761
5.7814 2.3653 19.745
5.7641 2.3654 19.75
5.7295 2.3656 19.76
5.7159 2.3699 19.764
5.682 2.3723 19.75
5.6647 2.3724 19.755
5.6473 2.3725 19.76
5.5006 2.3862 19.754
5.4833 2.3863 19.76
5.466 2.3864 19.765
5.4486 2.3865 19.77
5.4024 2.3954 19.735
5.385 2.3955 19.74
5.3677 2.3956 19.745
5.3504 2.3957 19.75
5.3167 2.3981 19.736
5.3033 2.4024 19.74
5.286 2.4025 19.745
5.2686 2.4026 19.75
5.1707 2.4118 19.731
5.1534 2.4119 19.736
5.1361 2.412 19.741
5.1227 2.4162 19.746
5.1054 2.4163 19.751
5.0597 2.4251 19.716
5.0424 2.4252 19.721
5.0251 2.4253 19.726
5.0077 2.4255 19.732
4.9904 2.4256 19.737
4.7811 2.4459 19.728
4.7638 2.446 19.733
4.7132 2.4485 19.724
4.6959 2.4486 19.729
4.6668 2.4551 19.714
4.6494 2.4552 19.719
4.6321 2.4553 19.725
4.6147 2.4555 19.73
4.5841 2.4598 19.74
4.551 2.4622 19.726
4.5337 2.4623 19.731
4.5047 2.4687 19.716
4.4123 2.4818 19.696
4.4064 2.4757 19.722
4.3603 2.4822 19.712
4.3274 2.4846 19.698
4.3141 2.4888 19.703
4.2968 2.4889 19.708
4.1138 2.4986 19.716
4.0852 2.505 19.701
4.0679 2.5051 19.707
4.0505 2.5053 19.712
4.022 2.5116 19.697
4.0046 2.5118 19.703
3.9873 2.5119 19.708
3.9699 2.5121 19.713
3.9567 2.5163 19.718
3.9241 2.5185 19.704
3.7805 2.532 19.701
3.7589 2.5281 19.707
3.7133 2.5346 19.698
3.7109 2.5326 19.723
3.6828 2.5389 19.708
3.6503 2.5412 19.694
3.633 2.5413 19.699
3.6155 2.5415 19.704
3.4593 2.5591 19.707
3.427 2.5614 19.693
3.4139 2.5656 19.698
3.3643 2.568 19.689
3.3469 2.5681 19.695
3.3338 2.5724 19.7
3.3016 2.5746 19.686
3.2842 2.5747 19.691
3.1939 2.5876 19.674
3.1764 2.5878 19.679
3.159 2.5879 19.684
3.1416 2.5881 19.689
3.1139 2.5943 19.675
3.082 2.5965 19.661
3.0689 2.6007 19.667
3.0471 2.5969 19.672
2.86 2.6166 19.662
2.8425 2.6168 19.667
2.8152 2.623 19.653
2.7977 2.6232 19.658
2.7803 2.6233 19.664
2.7672 2.6276 19.669
2.7497 2.6277 19.675
2.6384 2.6366 19.663
2.6209 2.6368 19.668
2.5937 2.643 19.654
2.5762 2.6432 19.659
2.5587 2.6434 19.665
2.5238 2.6438 19.675
2.4967 2.6499 19.662
2.4652 2.6521 19.647
2.4477 2.6522 19.653
2.2712 2.6659 19.662
2.2231 2.6705 19.679
2.1918 2.6726 19.665
2.165 2.6788 19.651
2.1475 2.679 19.656
2.1299 2.6792 19.662
2.1124 2.6794 19.667
2.0993 2.6836 19.673
2.0817 2.6838 19.678
2.0506 2.6859 19.664
2.033 2.6861 19.669
2.0155 2.6863 19.674
1.9979 2.6865 19.68
1.9628 2.687 19.69
1.9361 2.6931 19.677
1.8082 2.7021 19.67
1.7906 2.7023 19.676
1.773 2.7025 19.681
1.7465 2.7086 19.667
1.7289 2.7088 19.673
1.7113 2.709 19.678
1.6806 2.7135 19.689
1.663 2.7137 19.694
1.4651 2.7351 19.667
1.4561 2.7295 19.69
1.4298 2.7355 19.677
1.3946 2.736 19.688
1.3814 2.7402 19.694
1.3507 2.7422 19.68
1.3331 2.7425 19.685
1.2411 2.751 19.668
1.2279 2.7552 19.674
1.1842 2.7615 19.666
1.175 2.7559 19.69
1.136 2.7637 19.657
1.1184 2.7639 19.663
1.1008 2.7642 19.668
1.0831 2.7644 19.673
0.94743 2.7816 19.674
0.90389 2.7879 19.666
0.88623 2.7881 19.671
0.8604 2.7941 19.658
0.84274 2.7943 19.663
0.82507 2.7946 19.669
0.8074 2.7948 19.674
0.76906 2.8025 19.642
0.70287 2.8075 19.664
0.67271 2.8094 19.65
0.6675 2.808 19.674
0.64183 2.814 19.661
0.61172 2.8159 19.647
0.59403 2.8161 19.652
0.56314 2.8207 19.664
0.54544 2.8209 19.669
0.37588 2.836 19.655
0.35817 2.8363 19.66
0.34046 2.8365 19.665
0.31503 2.8424 19.653
0.2796 2.843 19.663
0.25422 2.8489 19.65
0.23651 2.8491 19.655
0.21878 2.8494 19.66
0.20105 2.8497 19.666
0.11052 2.858 19.649
0.097262 2.8622 19.656
0.079525 2.8625 19.661
0.061782 2.8628 19.666
0.044034 2.8631 19.671
0.026281 2.8633 19.676
-0.010838 2.8708 19.645
-0.028578 2.8711 19.65
-0.041853 2.8754 19.656
-0.20307 2.8847 19.66
-0.21637 2.8891 19.666
-0.24586 2.8909 19.653
-0.25917 2.8952 19.659
-0.28862 2.897 19.645
-0.30638 2.8973 19.65
-0.40954 2.9098 19.641
-0.42732 2.9101 19.646
-0.44064 2.9144 19.652
-0.48328 2.9205 19.645
-0.50551 2.9168 19.648
-0.53032 2.9226 19.636
-0.5481 2.9229 19.641
-0.56589 2.9232 19.646
-0.58368 2.9235 19.651
-0.60844 2.9293 19.639
-0.7468 2.9424 19.639
-0.77144 2.9482 19.627
-0.78923 2.9484 19.632
-0.83605 2.9505 19.623
-0.83823 2.9534 19.648
-0.87398 2.9606 19.618
-0.96303 2.9621 19.642
-0.99194 2.9638 19.629
-1.0053 2.9682 19.635
-1.0232 2.9685 19.64
-1.041 2.9688 19.645
-1.0764 2.976 19.615
-1.1011 2.9752 19.643
-1.1255 2.9809 19.631
-1.1433 2.9812 19.636
-1.1612 2.9815 19.641
-1.3169 2.9949 19.646
-1.3348 2.9952 19.651
-1.3876 3.0027 19.626
-1.3947 3.0016 19.649
-1.4062 2.9965 19.67
-1.4412 3.0036 19.64
-1.4547 3.008 19.646
-1.4725 3.0083 19.651
-1.5146 3.0143 19.644
-1.6281 3.0217 19.656
-1.646 3.022 19.661
-1.6639 3.0223 19.666
-1.6879 3.028 19.654
-1.7163 3.0297 19.641
-1.7342 3.03 19.645
-1.7521 3.0304 19.65
-1.7835 3.0351 19.661
-1.8014 3.0354 19.666
-1.9209 3.0481 19.662
-1.9492 3.0498 19.648
-1.9731 3.0554 19.637
-1.985 3.0504 19.658
-2.0089 3.0561 19.646
-2.0268 3.0565 19.651
-2.0583 3.0612 19.662
-2.0762 3.0615 19.667
-2.1955 3.0743 19.662
-2.2134 3.0746 19.667
-2.2313 3.0749 19.671
-2.2594 3.0766 19.658
-2.2831 3.0822 19.647
-2.301 3.0826 19.651
-2.3325 3.0873 19.662
-2.4794 3.1016 19.645
-2.5153 3.1023 19.654
-2.5388 3.108 19.642
-2.5568 3.1083 19.647
-2.5747 3.1086 19.651
-2.5982 3.1143 19.64
-2.6162 3.1146 19.645
-2.6341 3.115 19.649
-2.6521 3.1154 19.654
-2.6755 3.121 19.642
-2.6935 3.1214 19.647
-2.7212 3.1229 19.634
-2.7708 3.128 19.649
-2.8067 3.1288 19.658
-2.83 3.1344 19.647
-2.8534 3.14 19.636
-2.8713 3.1404 19.64
-2.8946 3.146 19.629
-2.994 3.149 19.634
-3.0077 3.1534 19.64
-3.0257 3.1538 19.645
-3.0584 3.1605 19.616
-3.0763 3.1609 19.62
-3.0943 3.1613 19.625
-3.1123 3.1616 19.629
-3.2082 3.178 19.622
-3.2313 3.1836 19.611
-3.2586 3.1851 19.598
-3.2723 3.1895 19.605
-3.2903 3.1899 19.609
-3.3083 3.1903 19.613
-3.4082 3.2026 19.604
-3.4262 3.2029 19.609
-3.4491 3.2085 19.598
-3.4762 3.21 19.585
-3.49 3.2144 19.591
-3.508 3.2148 19.596
-3.544 3.2156 19.604
-3.5759 3.2222 19.576
-3.6616 3.2282 19.6
-3.6796 3.2286 19.604
-3.6976 3.229 19.608
-3.7156 3.2294 19.613
-3.7564 3.2354 19.606
-3.7833 3.2368 19.593
-3.8013 3.2372 19.597
-3.8193 3.2376 19.601
-3.8373 3.238 19.606
-3.8512 3.2425 19.612
-4.0587 3.2572 19.628
-4.09 3.2637 19.6
-4.108 3.2641 19.604
-4.126 3.2645 19.609
-4.1621 3.2654 19.617
-4.1887 3.2668 19.604
-4.1941 3.2703 19.627
-4.2121 3.2707 19.631
-4.2387 3.2721 19.619
-4.3334 3.2793 19.624
-4.3695 3.2801 19.632
-4.392 3.2856 19.622
-4.4015 3.285 19.643
-4.4324 3.2915 19.615
-4.4461 3.2869 19.634
-4.4642 3.2873 19.638
-4.5187 3.2978 19.637
-4.6718 3.3113 19.64
-4.6981 3.3127 19.627
-4.7162 3.3131 19.631
-4.7343 3.3136 19.635
-4.7746 3.3195 19.628
-4.7927 3.3199 19.632
-4.8189 3.3213 19.619
-4.9175 3.3336 19.61
-4.9235 3.3372 19.633
-4.9497 3.3386 19.62
-4.9677 3.339 19.624
-4.9899 3.3445 19.613
-5.008 3.345 19.617
-5.026 3.3454 19.621
-5.0401 3.35 19.627
-5.1646 3.3636 19.605
-5.1866 3.3691 19.594
-5.2126 3.3704 19.581
-5.2448 3.3754 19.591
-5.3532 3.3873 19.602
-5.3791 3.3886 19.589
-5.401 3.3941 19.578
-5.441 3.4 19.572
-5.5931 3.4137 19.573
-5.633 3.4196 19.566
-5.6471 3.4242 19.572
-5.6765 3.4304 19.545
-5.6909 3.426 19.563
-5.763 3.4369 19.566
-5.7886 3.4382 19.553
-5.8283 3.4442 19.546
-5.8539 3.4455 19.534
-5.8681 3.4501 19.54
-5.8861 3.4505 19.543
-6.0594 3.4697 19.533
-6.1029 3.4715 19.524
-6.1209 3.472 19.528
-6.1571 3.4729 19.535
-6.1713 3.4775 19.541
-6.2867 3.4903 19.534
-6.3119 3.4916 19.521
-6.3333 3.497 19.511
-6.3624 3.4973 19.534
-6.5745 3.5224 19.516
-6.7649 3.5422 19.509
-6.783 3.5427 19.512
-6.8292 3.5494 19.489
-7.0945 3.5762 19.48
-7.1059 3.576 19.499
-7.124 3.5765 19.502
-7.1506 3.572 19.538
-7.1802 3.5724 19.56
8.6613 2.1277 19.858
8.6462 2.1322 19.859
8.6472 2.1296 19.883
8.6296 2.1297 19.887
8.6119 2.1298 19.891
8.5942 2.1299 19.896
8.5605 2.1369 19.878
8.5429 2.137 19.882
8.5066 2.1397 19.867
8.489 2.1397 19.872
8.4899 2.1372 19.896
8.4537 2.1399 19.881
8.4361 2.14 19.886
8.4211 2.1444 19.886
8.385 2.1471 19.872
8.3674 2.1472 19.876
8.2812 2.1544 19.872
8.2636 2.1545 19.876
8.2276 2.1571 19.862
8.21 2.1572 19.866
8.1952 2.1616 19.867
8.1777 2.1617 19.872
8.1601 2.1618 19.877
8.1242 2.1644 19.862
8.1066 2.1645 19.867
8.0736 2.1715 19.849
8.056 2.1716 19.854
8.0385 2.1716 19.858
8.0027 2.1743 19.844
7.9851 2.1744 19.848
7.9676 2.1744 19.853
7.9355 2.1789 19.859
7.8997 2.1815 19.845
7.7614 2.1914 19.831
7.7439 2.1915 19.836
7.7264 2.1915 19.841
7.7089 2.1916 19.845
7.6944 2.196 19.847
7.6769 2.1961 19.852
7.6414 2.1987 19.837
7.6239 2.1987 19.842
7.6065 2.1988 19.847
7.5715 2.199 19.857
7.5212 2.2084 19.82
7.5037 2.2085 19.824
7.4894 2.2128 19.826
7.4719 2.2129 19.831
7.4545 2.213 19.836
7.4371 2.2131 19.841
7.3347 2.2227 19.819
7.3173 2.2228 19.824
7.2821 2.2253 19.809
7.2647 2.2254 19.814
7.2472 2.2255 19.819
7.2298 2.2256 19.824
7.1982 2.23 19.831
7.1631 2.2326 19.816
7.1456 2.2327 19.821
7.1138 2.2395 19.804
7.0964 2.2395 19.809
7.079 2.2396 19.814
7.0266 2.2423 19.804
7.0092 2.2424 19.809
6.9951 2.2467 19.812
6.9777 2.2468 19.817
6.9603 2.2468 19.822
6.8243 2.2565 19.81
6.7894 2.2591 19.796
6.7755 2.2634 19.798
6.7581 2.2635 19.803
6.7408 2.2635 19.808
6.7234 2.2636 19.814
6.6573 2.2729 19.782
6.64 2.273 19.787
6.6226 2.2731 19.792
6.6052 2.2732 19.797
6.5879 2.2733 19.802
6.574 2.2776 19.805
6.5393 2.2801 19.791
6.522 2.2802 19.796
6.439 2.2895 19.77
6.4252 2.2938 19.773
6.4079 2.2939 19.778
6.3906 2.294 19.783
6.3732 2.2941 19.788
6.3559 2.2942 19.793
6.2905 2.3034 19.762
6.2732 2.3034 19.767
6.2559 2.3035 19.772
6.2385 2.3036 19.777
6.2212 2.3037 19.783
6.2039 2.3038 19.788
6.1901 2.3081 19.791
6.1558 2.3106 19.776
6.1385 2.3107 19.782
6.0043 2.3202 19.771
5.9906 2.3245 19.775
5.9733 2.3246 19.78
5.956 2.3247 19.785
5.9386 2.3248 19.791
5.8914 2.3338 19.755
5.8741 2.3339 19.76
5.8567 2.334 19.765
5.8432 2.3382 19.769
5.8085 2.3384 19.779
5.7745 2.3409 19.764
5.7571 2.341 19.77
5.7269 2.3476 19.754
5.641 2.3504 19.755
5.6237 2.3505 19.76
5.6102 2.3547 19.764
5.5928 2.3548 19.769
5.5755 2.3549 19.774
5.5416 2.3574 19.76
5.5117 2.364 19.744
5.4943 2.3641 19.749
5.477 2.3642 19.754
5.4462 2.3685 19.764
5.4289 2.3686 19.769
5.4116 2.3687 19.774
5.3778 2.3712 19.76
5.249 2.3847 19.749
5.2316 2.3848 19.755
5.2143 2.3849 19.76
5.1847 2.3915 19.744
5.1511 2.3939 19.73
5.1338 2.394 19.735
5.1165 2.3941 19.74
5.0858 2.3985 19.75
5.0523 2.4009 19.735
5.0511 2.3987 19.761
5.0176 2.4011 19.746
4.9709 2.4077 19.736
4.9188 2.4081 19.752
4.8855 2.4105 19.737
4.8722 2.4147 19.742
4.8548 2.4148 19.747
4.8255 2.4213 19.732
4.8027 2.4152 19.763
4.7576 2.4239 19.728
4.7402 2.4241 19.733
4.7055 2.4243 19.744
4.6923 2.4285 19.748
4.5259 2.4381 19.75
4.4969 2.4446 19.735
4.4795 2.4447 19.741
4.4333 2.4513 19.731
4.4003 2.4536 19.716
4.3871 2.4579 19.721
4.3697 2.458 19.727
4.3523 2.4581 19.732
4.335 2.4583 19.737
4.3176 2.4584 19.743
4.2889 2.4648 19.728
4.2715 2.4649 19.733
4.2386 2.4673 19.718
4.1231 2.4744 19.73
4.0945 2.4808 19.715
4.0771 2.4809 19.721
4.0598 2.4811 19.726
4.0424 2.4812 19.732
4.0097 2.4835 19.717
3.9965 2.4877 19.722
3.8353 2.5013 19.725
3.8005 2.5017 19.735
3.7831 2.5018 19.741
3.7506 2.5041 19.726
3.7224 2.5104 19.712
3.7049 2.5106 19.717
3.6875 2.5107 19.723
3.642 2.5172 19.713
3.6395 2.5153 19.738
3.5162 2.5305 19.706
3.4944 2.5266 19.711
3.4813 2.5308 19.716
3.4639 2.531 19.722
3.4359 2.5373 19.707
3.4185 2.5375 19.713
3.3862 2.5397 19.698
3.2434 2.5531 19.696
3.2303 2.5573 19.702
3.2129 2.5575 19.707
3.1954 2.5577 19.712
3.178 2.5578 19.718
3.1357 2.5661 19.684
3.1182 2.5663 19.689
3.0877 2.5707 19.7
2.9758 2.5797 19.688
2.9452 2.5841 19.699
2.9034 2.5923 19.665
2.8859 2.5925 19.67
2.8685 2.5926 19.676
2.8554 2.5969 19.681
2.8335 2.593 19.686
2.8205 2.5972 19.692
2.6467 2.6127 19.677
2.6293 2.6129 19.682
2.5846 2.6193 19.673
2.5671 2.6195 19.679
2.5496 2.6197 19.684
2.518 2.6218 19.67
2.5005 2.622 19.675
2.4874 2.6262 19.681
2.4385 2.6286 19.672
2.4254 2.6328 19.678
2.3414 2.6355 19.679
2.3108 2.6399 19.69
2.2794 2.6421 19.676
2.2619 2.6423 19.682
2.2443 2.6425 19.687
2.2174 2.6486 19.673
2.1999 2.6488 19.678
2.1824 2.649 19.684
1.9441 2.6692 19.691
1.8913 2.6699 19.706
1.8738 2.6701 19.712
1.8336 2.6781 19.679
1.8251 2.6724 19.703
1.7985 2.6785 19.689
1.7809 2.6787 19.695
1.7457 2.6792 19.705
1.7281 2.6794 19.71
1.715 2.6836 19.716
1.684 2.6857 19.702
1.6664 2.6859 19.707
1.6399 2.692 19.694
1.499 2.7053 19.694
1.4638 2.7057 19.704
1.4462 2.7059 19.709
1.4154 2.708 19.695
1.4154 2.7104 19.721
1.2571 2.7215 19.7
1.2439 2.7257 19.706
1.2178 2.7318 19.693
1.2086 2.7262 19.716
1.1696 2.734 19.684
1.1564 2.7383 19.69
1.1211 2.7387 19.701
1.1034 2.739 19.706
1.0857 2.7392 19.711
0.97622 2.748 19.699
0.95029 2.754 19.686
0.94536 2.7525 19.711
0.90673 2.7602 19.679
0.88905 2.7605 19.684
0.87587 2.7647 19.69
0.73582 2.7779 19.69
0.69756 2.7856 19.658
0.67988 2.7858 19.663
0.6702 2.7804 19.686
0.649 2.7904 19.675
0.61885 2.7923 19.661
0.6136 2.7909 19.685
0.58347 2.7928 19.671
0.56577 2.7931 19.676
0.54807 2.7933 19.681
0.47384 2.8041 19.685
0.44381 2.806 19.671
0.42609 2.8062 19.676
0.40838 2.8065 19.681
0.38288 2.8124 19.669
0.34744 2.813 19.679
0.32971 2.8132 19.684
0.30428 2.8192 19.671
0.28206 2.8154 19.675
0.25667 2.8213 19.662
0.24343 2.8256 19.669
0.11164 2.8331 19.687
0.064122 2.8353 19.678
0.038881 2.8412 19.665
0.021131 2.8414 19.67
0.007856 2.8457 19.677
-0.014384 2.842 19.68
-0.027669 2.8463 19.687
-0.118 2.8546 19.671
-0.14907 2.8592 19.682
-0.16685 2.8594 19.687
-0.19641 2.8613 19.673
-0.21418 2.8616 19.678
-0.22749 2.8659 19.685
-0.25701 2.8677 19.671
-0.27479 2.868 19.676
-0.29257 2.8683 19.681
-0.41367 2.8811 19.676
-0.42701 2.8854 19.683
-0.44482 2.8857 19.688
-0.48124 2.8931 19.657
-0.49197 2.8878 19.679
-0.51683 2.8937 19.666
-0.55944 2.8998 19.659
-0.63763 2.9065 19.662
-0.65543 2.9068 19.667
-0.68016 2.9126 19.655
-0.69797 2.9129 19.66
-0.71578 2.9132 19.665
-0.7336 2.9135 19.669
-0.75828 2.9193 19.657
-0.7761 2.9196 19.662
-0.80074 2.9254 19.65
-0.95682 2.9388 19.655
-0.98133 2.9446 19.644
-0.99249 2.9394 19.665
-1.0348 2.9455 19.658
-1.0527 2.9458 19.663
-1.0661 2.9501 19.669
-1.0994 2.9478 19.654
-1.1128 2.9522 19.661
-1.1306 2.9525 19.666
-1.2221 2.9635 19.675
-1.2508 2.9653 19.661
-1.2731 2.9615 19.664
-1.2866 2.9659 19.671
-1.3044 2.9662 19.676
-1.3223 2.9665 19.68
-1.3466 2.9723 19.669
-1.3753 2.974 19.655
-1.3824 2.9729 19.678
-1.411 2.9746 19.665
-1.4245 2.979 19.671
-1.4424 2.9793 19.676
-1.5981 2.9927 19.681
-1.616 2.993 19.686
-1.6401 2.9988 19.674
-1.658 2.9991 19.679
-1.6865 3.0008 19.665
-1.7 3.0051 19.672
-1.7179 3.0055 19.677
-1.7358 3.0058 19.681
-1.7537 3.0061 19.686
-1.7716 3.0065 19.691
-1.8555 3.0186 19.677
-1.8734 3.0189 19.681
-1.9017 3.0206 19.668
-1.9256 3.0263 19.656
-1.9435 3.0266 19.661
-1.9614 3.0269 19.666
-1.975 3.0313 19.672
-1.9973 3.0276 19.675
-2.1482 3.0451 19.682
-2.2122 3.0474 19.678
-2.2359 3.0531 19.666
-2.2539 3.0534 19.671
-2.2718 3.0537 19.675
-2.2855 3.0581 19.682
-2.3034 3.0585 19.687
-2.3314 3.0601 19.673
-2.4089 3.0668 19.675
-2.4269 3.0672 19.68
-2.4405 3.0716 19.687
-2.4684 3.0732 19.673
-2.4864 3.0736 19.678
-2.5044 3.0739 19.682
-2.5459 3.0799 19.675
-2.7242 3.099 19.669
-2.7421 3.0994 19.673
